ply
format ascii 1.0
element vertex 1215
property float x
property float y
property float z
property uchar red
property uchar green
property uchar blue
end_header
-1.753673 0.9985856 -0.3174355 24 12 8
-1.914171 1.628779 -0.2250822 255 255 255
-1.488441 1.069194 -0.05712928 16 12 16
-1.615908 1.204801 -0.1273755 148 8 8
-1.486647 1.01354 -0.07147029 65 16 24
-1.795539 1.43414 0.1191847 148 32 24
-1.926361 1.659145 -0.2305398 255 246 197
-2.043832 1.042552 -0.3421796 65 48 24
-1.767427 0.8951081 -0.2944255 57 36 24
-4.282215 0.3821891 1.10313 131 8 0
-4.273385 0.7048934 1.086241 16 8 0
-3.790895 1.682813 0.6222929 172 206 139
-4.058458 1.005546 1.10006 32 4 0
-4.285202 0.6816245 1.116696 8 4 8
-3.818825 1.530729 1.060469 16 20 16
-4.136885 1.041114 1.130306 98 20 16
-3.919863 1.49269 0.7211053 106 4 0
-3.814057 1.574673 1.130375 57 8 0
-4.244406 0.7510358 1.135799 65 4 0
-4.226705 0.5648132 1.166886 0 4 8
-4.082165 1.410655 1.067173 24 4 8
-3.927414 1.392802 1.155445 74 0 0
-4.293309 0.5565844 1.179294 0 4 16
-4.233525 0.9228424 1.161624 41 0 0
-3.703346 1.742986 1.058309 32 20 8
-3.820233 1.840991 1.099599 74 56 41
-3.796783 0.6680083 0.8314067 98 24 41
-4.368851 0.463965 1.176105 65 60 57
-3.900706 1.353857 1.027649 24 4 0
-4.187857 1.067011 1.227293 74 0 0
-4.381351 0.4069951 1.096854 8 4 0
-3.840586 1.621543 0.679737 57 36 24
-4.467093 0.760536 1.057824 156 76 106
-4.15418 0.9220602 1.058977 90 28 24
-3.909435 1.508416 1.144221 65 4 0
-4.149064 0.7790165 1.188521 106 4 0
-3.998682 1.539948 1.113309 8 12 16
-4.052624 0.8502446 0.9228982 106 44 65
-3.969078 1.722049 0.6558951 238 255 189
-4.315344 0.7980215 1.105475 82 0 8
-4.166661 0.6589237 1.044199 148 40 32
-3.214425 -0.0933907 0.5100492 123 72 49
-3.659448 -0.4197764 1.282278 65 48 24
-3.83668 0.6203864 1.40325 65 52 41
-3.942016 -0.1302313 1.00739 115 8 0
-4.286345 0.5450635 0.7371348 90 0 0
-3.816998 0.660801 1.400934 65 48 32
-3.366414 1.647733 1.325069 74 60 49
-3.806933 1.702053 0.6172112 8 137 8
-4.129404 0.9099509 1.121739 131 105 65
-3.814388 1.493186 1.37157 24 16 8
-4.083311 1.094172 1.209967 0 0 0
-4.150837 0.774775 1.117432 180 141 82
-4.317362 0.6822718 1.182366 32 8 24
-3.839612 1.210005 1.050286 98 48 41
-3.542995 -0.9905242 1.079716 90 68 49
-3.915203 0.8948328 0.9760488 24 0 0
-3.538039 -0.662077 1.158116 115 89 74
-3.860198 0.6900718 0.8900608 123 8 16
-4.122496 1.123903 1.257485 148 0 0
-4.22118 1.016985 1.03088 65 0 0
-4.336815 0.4610454 0.9981416 65 68 65
-3.776039 0.1457571 1.312927 90 72 49
-3.776329 1.478545 1.456594 65 56 49
-3.391789 1.755378 1.074369 57 44 32
-3.796499 0.7109622 1.428742 74 60 41
-4.166265 1.097208 1.25854 41 40 41
-3.883766 0.07331365 1.372831 65 48 32
-4.214383 0.7713468 1.153535 115 4 0
-4.112473 0.8446236 0.9127523 98 24 32
-4.151555 1.076096 1.162314 74 32 32
-4.223204 0.5447125 1.139147 205 218 255
-4.221442 0.6244423 1.130671 197 210 230
-4.059931 1.237511 1.098796 82 56 57
-4.349736 0.4268447 1.113004 0 4 0
-4.217311 0.6607444 1.153833 156 174 205
-3.870812 1.405486 1.062925 65 20 16
-4.233676 0.6434582 1.147999 41 28 8
-4.259292 0.7599791 1.153696 180 141 82
-4.076718 0.6937267 1.019885 65 4 0
-3.241039 1.030026 0.8248348 57 12 0
-1.573271 0.221729 -0.3476186 0 0 0
-2.61374 -0.05870053 0.3858198 32 4 0
-4.222726 1.040261 1.178273 32 32 32
-3.689152 -0.3490871 1.236552 98 72 57
-4.102231 0.7808986 0.9279704 164 52 57
-3.823978 1.265462 1.119424 65 0 0
-3.890188 0.2848305 1.429282 74 56 41
-3.427741 1.772682 1.38659 57 44 32
-3.710799 1.067131 1.229802 230 182 106
-3.470427 -0.6980252 1.065435 49 36 16
-4.949858 1.932506 1.456108 106 0 0
-3.680887 -0.3920785 1.152463 106 80 49
-3.855517 0.7257011 0.8816898 148 68 98
-3.809314 0.5260954 1.421672 98 80 57
-4.115821 1.048269 1.252534 74 60 65
-3.657223 -0.4255171 1.232671 131 101 82
-3.582782 1.744461 0.9709509 115 93 82
-4.060019 1.169702 1.012654 131 0 0
-3.15527 2.095232 1.204793 74 16 8
-4.299607 0.4349812 1.088518 0 4 0
-3.201386 1.643789 1.318223 115 89 74
-3.71242 0.3818757 1.351685 115 89 65
-3.771208 0.7398508 0.8666739 148 68 90
-3.749285 0.5581637 1.256045 123 101 82
-3.40405 -0.7923995 1.274786 65 40 16
-3.78212 0.1304248 1.332739 74 56 49
-4.39218 0.3931168 0.9895693 115 0 0
-3.337556 -0.9010755 1.211705 74 52 32
-4.029205 1.381431 1.120461 8 16 16
-4.252408 0.5049303 1.177901 24 20 24
-3.398353 -1.059712 1.016724 90 68 49
-4.10745 1.272115 1.149972 74 60 41
-3.666699 -0.3525681 1.30956 90 68 41
-4.139159 1.420452 1.116326 65 4 0
-4.157244 0.9867532 1.125541 57 32 32
-3.984415 1.685423 0.6514584 90 165 74
-3.328488 -0.914385 1.215428 98 68 49
-2.589098 1.429981 0.4095814 98 40 16
-4.220717 0.6348246 1.158211 65 8 8
-3.142294 -1.035492 1.244543 74 52 32
-3.625341 1.792243 1.468839 74 52 41
-3.904813 0.7816514 1.488244 90 72 57
-2.998845 1.352347 1.180478 82 68 57
-3.700983 0.2837434 1.358563 82 64 49
-3.620957 0.1805164 1.306613 82 64 49
-3.730059 1.554587 1.130104 98 4 0
-4.140873 1.562192 1.185399 57 4 0
-3.555205 2.093959 0.5686681 98 93 82
-3.363664 1.708984 1.35933 57 40 32
-3.089442 2.144017 1.213564 41 8 0
-3.791129 1.506605 1.340873 57 48 32
-4.071945 -0.1380299 1.01757 65 8 0
-4.080727 1.119783 0.7166442 57 40 24
-4.006997 1.322053 1.055239 90 52 41
-4.303277 0.3841498 1.079922 82 20 16
-4.235924 0.4864651 1.080704 8 8 8
-4.01437 0.7636476 1.122987 164 4 0
-4.061655 1.118214 1.215022 49 4 0
-3.692999 1.730716 1.064907 65 52 41
-4.25646 0.5315912 1.077525 32 28 24
-4.099857 1.012831 0.7182998 255 255 238
-4.027496 0.869226 1.055372 57 60 74
-3.826021 0.7734981 0.9911896 24 16 16
-3.601461 1.327396 0.950169 205 85 90
-3.771424 0.9860759 0.9947302 131 4 0
-2.830828 1.231976 0.3146101 16 12 8
-4.136125 1.29866 0.7338603 90 36 24
-2.793068 1.232348 0.3593504 41 28 16
-3.539704 1.414438 0.9627212 213 85 82
-3.596586 1.325633 0.9817669 222 89 90
-2.944424 1.325543 0.3295529 8 8 0
-3.708629 1.073613 0.9914681 189 56 57
-3.897 0.7883259 0.864108 156 72 98
-2.789845 1.170529 0.336432 16 12 8
-3.609688 1.351072 0.9665716 57 24 24
-3.659134 1.278307 0.9452165 65 4 0
-2.868729 1.307566 0.3281998 8 12 8
-3.549445 1.394353 0.9656433 74 52 49
-2.810121 1.216027 0.3694936 24 20 16
-3.77158 0.9842229 1.039403 65 64 65
-2.827588 1.296057 0.3206459 16 16 8
-3.852903 0.7793095 0.8470721 139 44 65
-1.664968 0.5970877 0.1629339 90 20 16
-4.31235 1.005316 0.7494372 49 40 24
-2.939607 1.282623 0.3397059 24 20 16
-2.534799 -1.200569 0.2900751 189 182 172
-3.009134 1.576784 0.5700417 16 12 8
-2.638424 -1.175326 0.122515 106 48 24
-2.477896 -1.103721 0.2322593 49 36 16
-2.439491 -1.012665 -0.02874394 24 20 16
-2.407152 -1.033032 0.1942924 90 68 41
-3.522858 -1.39729 1.117077 98 80 57
-4.456925 1.940381 0.815207 24 8 0
-2.515585 -1.147084 0.2625504 65 48 24
-2.881211 -1.224925 0.3064473 49 36 24
-3.344359 1.4542 1.312926 82 72 57
-2.665655 -1.166623 0.1665184 16 4 0
-4.037563 0.9126904 1.05662 24 24 24
-4.029358 1.149529 1.028234 24 0 0
-4.114622 0.9329828 1.124258 90 0 0
-4.058134 0.9019406 1.096663 24 8 8
-4.055481 1.189861 1.076964 32 24 24
-4.243245 0.4472585 1.008324 115 0 0
-4.033424 1.438645 1.088942 82 72 74
-4.105033 0.6991788 1.183786 205 165 197
-4.179714 0.5548549 1.113531 131 0 0
-4.052634 0.7713244 1.160538 65 4 0
-3.890254 -0.1242679 1.046291 82 4 0
-3.99024 1.104242 1.161508 98 0 0
-3.523721 -0.7217061 1.074636 74 48 16
-3.738271 0.1919875 1.349544 65 48 32
-3.502405 -0.8129784 1.062101 82 64 32
-3.396944 -1.518111 0.9934191 65 48 32
-3.431439 -1.513099 0.9749526 65 48 32
-4.004636 -0.1319582 1.129758 115 4 0
-3.761959 0.6003961 1.423097 74 56 41
-4.084035 -0.1701142 1.069072 106 0 0
-3.549651 -1.636268 1.047258 57 44 24
-3.485274 -1.560276 0.9986042 8 8 0
-3.578485 -1.595722 1.051405 82 68 41
-4.181842 0.9600345 1.100616 16 12 8
-3.967466 1.462675 1.118633 222 137 139
-2.605478 -1.164959 0.157094 246 174 115
-2.613658 -1.175849 0.1498129 238 174 115
-2.61984 -1.164566 0.1692751 246 165 106
-5.043092 1.968588 0.7736326 65 24 16
-3.502172 0.2946791 1.292301 98 85 65
-3.809232 0.1716461 1.386526 74 60 41
-5.574489 2.7224 0.8521975 57 48 32
-3.604819 -0.6944764 1.210357 74 52 32
-4.16748 1.067063 1.222197 115 0 0
-4.049363 1.184636 1.091061 24 4 0
-3.790689 0.7589667 1.413346 82 68 49
-3.77977 -0.3471073 1.219886 74 56 41
-3.670334 1.053931 1.215817 246 190 106
-4.343122 0.5231867 1.058521 32 4 0
-3.218729 1.910724 1.160548 106 85 65
-3.573606 0.9935747 1.362851 106 89 74
-3.607922 -1.623689 1.304639 82 64 49
-3.763879 1.463608 1.43728 82 64 57
-3.869735 0.9775638 1.179502 65 44 49
-3.645155 -1.534332 1.263633 74 52 32
-3.956533 1.951909 0.7100039 16 8 0
-3.616866 -0.7547822 1.382502 82 60 32
-3.748335 -0.8320947 1.233037 49 32 8
-3.869186 1.483787 1.072658 8 8 0
-3.684748 1.240981 1.205172 57 8 8
-3.824215 1.518223 1.070054 32 0 8
-3.862141 1.498879 1.078009 8 8 16
-4.869693 -0.2944342 0.4182504 32 24 8
-4.33739 -1.021951 0.4218078 180 101 57
-4.294656 -0.7887134 0.570973 98 48 24
-4.193154 -1.114167 0.55773 82 36 8
-4.294897 -1.086583 0.5040522 98 48 16
-5.418 0.9840813 0.57031 255 117 90
-5.245387 0.6871246 0.703411 32 28 16
-4.394925 -0.4545887 0.6351962 255 198 148
-4.45783 -0.4198691 0.6300883 189 137 90
-5.294894 1.06303 0.6599581 32 16 8
-4.286951 -1.055806 0.5387721 123 48 24
-4.338321 -0.9909067 0.5252112 164 93 57
-6.799086 2.1071 -1.304154 164 129 82
-5.061663 1.417305 0.4158469 197 56 41
-4.314146 -0.7789982 0.5848148 139 93 57
-4.316242 -1.006494 0.445911 106 48 24
-7.226109 2.107368 -0.8289044 131 109 65
-7.175545 2.103143 -0.792684 131 105 65
-4.322152 -1.083941 0.4860361 8 8 0
-4.270089 -1.127032 0.3342509 90 60 32
-6.57584 2.053902 -0.4047484 8 8 8
-4.910241 1.345299 0.5422307 148 129 82
-4.766774 0.1026762 0.705382 16 8 0
-4.87875 1.354015 0.523739 65 16 8
-7.010541 2.099216 -0.6766358 90 76 41
-4.319797 -1.076357 0.3662228 222 194 172
-4.926344 -0.4603571 0.4450184 65 44 24
-4.871748 1.33527 0.603614 172 32 24
-4.413227 -0.4550578 0.6340644 238 182 123
-4.370317 -0.9356821 0.5722139 115 60 32
-4.500333 -0.2230174 0.6325126 16 8 0
-6.647402 2.087974 -1.227776 255 255 213
-6.720011 2.065636 -1.32458 255 255 255
-4.412431 0.03224044 0.7565891 49 20 8
-4.36574 -0.01655472 0.7188855 139 109 65
-4.465785 0.01009007 0.752317 65 48 24
-5.075613 1.468454 0.8408407 156 68 41
-5.001194 1.453012 0.8699543 57 24 16
-4.452731 -0.2446566 0.678615 98 48 24
-4.351997 -1.043079 0.4371366 156 89 49
-4.266111 -1.130871 0.3533103 74 48 24
-4.194942 -1.081029 0.3700376 98 64 49
-4.410604 -1.113815 0.3149046 41 20 8
-4.272069 -1.07435 0.4084531 205 178 139
-4.275723 -1.144345 0.5475603 123 105 98
-4.391804 -1.188786 0.5493236 16 20 0
-4.088911 -0.2577935 0.5789919 74 0 0
-5.147171 1.475679 0.8199019 98 40 24
-5.915497 2.418829 -0.9366952 115 52 24
-5.767573 2.802147 -0.9501853 164 125 74
-3.735954 1.832203 0.6102957 123 97 74
-5.478567 2.952052 -0.9097018 172 141 90
-4.453383 1.92308 -0.4075786 74 56 24
-3.881879 1.809774 0.6243629 57 48 41
-3.689728 1.715905 0.5168809 8 12 8
-5.912137 2.627961 -0.9473944 148 105 74
-5.956005 2.516245 -0.9408642 156 109 65
-5.271067 2.53117 -0.7906506 115 80 49
-4.470444 1.891241 -0.4189715 74 48 24
-4.751032 2.483935 -0.6707021 148 113 74
-5.808893 2.982258 -0.9728117 180 149 98
-4.430885 1.917516 -0.5309582 57 40 16
-5.373929 2.521139 -0.8045111 115 80 41
-4.046767 1.70942 0.6767963 41 32 24
-5.049476 2.542894 -0.7496656 131 101 57
-4.430073 1.880358 0.09830879 222 174 0
-4.207739 1.840062 -0.1057775 123 85 49
-5.006108 1.930754 0.3019902 41 20 24
-5.434758 2.585041 -0.8354654 189 161 115
-4.148606 1.847816 -0.4215731 49 36 16
-5.511343 2.744704 -0.8735685 131 93 57
-3.909229 1.772778 0.6291611 255 242 213
-4.446618 1.951752 -0.5246498 57 40 16
-6.199998 2.488441 -0.9874746 139 68 41
-5.268124 2.82089 -0.8428171 180 153 106
-5.420773 2.849803 -0.8718911 213 190 156
-4.26644 1.983756 0.1652259 57 40 32
-6.616738 2.713401 -1.120926 222 178 148
-3.756871 1.81686 0.5513329 8 8 8
-4.969715 2.75842 -0.7801339 180 153 106
-5.710908 1.358619 0.9130219 8 8 8
-6.978024 2.901322 -1.220991 205 153 115
-4.424605 1.888744 -0.2084148 41 20 0
-5.824756 2.808985 -0.9387269 238 206 164
-5.202438 2.051458 0.3432105 255 149 115
-6.314995 2.764455 -1.055303 246 214 172
-7.535416 2.803837 -1.340897 123 76 41
-5.336369 2.925358 -0.8801534 213 186 148
-6.757712 2.702493 -1.131881 156 80 49
-5.385046 2.609637 -0.8305693 189 157 106
-5.541139 2.694031 -0.8768397 189 157 115
-7.107741 2.662874 -1.217378 172 133 90
-3.818615 1.647542 0.6163719 246 255 222
-4.344671 1.885833 -0.4345487 90 64 24
-4.45208 1.879528 -0.2946495 49 24 0
-4.398129 1.89721 -0.3281291 98 76 41
-5.908933 3.068433 -1.014439 238 214 172
-5.23842 2.618764 -0.8034291 222 194 156
-5.532935 2.931881 -0.9054397 197 174 131
-5.917838 3.142823 -1.032986 230 206 156
-4.462103 1.893367 -0.3080733 74 60 24
-4.732203 1.97566 -0.6103617 74 48 24
-4.391261 1.89176 -0.2841858 90 68 32
-4.171577 0.8597456 1.037496 57 0 0
-3.965967 1.292325 1.00876 131 0 0
-4.020453 0.828712 0.9108412 164 44 57
-4.376935 1.872035 0.106292 255 210 82
-5.900934 3.225648 -1.054105 230 202 164
-4.218195 2.177322 -0.5143396 255 255 230
-4.062374 1.719309 0.6543171 255 255 255
-3.511368 1.687745 0.5757557 255 255 255
-4.097491 1.012229 1.159322 180 60 65
-3.827594 1.864394 0.557622 32 24 16
-4.20887 0.2814111 1.058252 115 16 16
-4.178028 0.52656 1.067132 74 4 0
-3.664785 1.780325 0.585867 32 24 8
-3.379244 1.781293 0.725184 90 64 49
-3.931836 1.222421 1.088045 82 40 32
-4.239708 0.6143122 1.007245 98 0 0
-4.200156 0.607821 1.071275 156 48 57
-3.940788 1.36158 1.025227 24 4 0
-3.637457 1.677042 1.017967 32 28 24
-4.085935 0.7195772 0.9236706 65 24 32
-3.787955 1.448676 1.016682 24 20 16
-3.883964 1.771287 0.5772045 255 255 255
-4.042254 0.9680194 1.160405 65 56 57
-4.252928 0.2863274 1.073166 123 20 16
-4.257228 0.4312659 1.07199 0 8 0
-3.692531 -0.2505526 1.703235 115 85 65
-3.674462 0.2789517 1.745102 106 85 65
-3.742285 1.19635 1.296141 106 80 57
-3.466435 1.615639 1.327771 115 97 82
-4.731207 0.6446971 1.165224 16 12 8
-2.239952 0.2586995 0.3761459 8 4 0
-3.57994 0.1282553 1.706799 106 85 65
-2.810965 1.121259 1.428636 90 76 65
-3.658612 0.06281842 1.685826 65 48 32
-3.732173 0.1785866 1.78318 106 85 65
-3.520635 -0.1894602 1.581472 115 85 74
-3.979457 0.91587 1.189036 98 32 32
-3.523373 1.206014 1.753307 16 12 8
-3.656227 0.05628864 1.658063 106 85 65
-3.622167 1.426869 1.852239 90 64 41
-4.189053 -0.2176642 0.6601468 98 68 32
-3.713958 0.05446829 1.621166 98 76 57
-3.790962 0.07044394 1.403775 123 101 74
-3.720584 0.2513835 1.7634 115 89 65
-4.09954 -1.049914 0.4085518 255 226 189
-3.692976 1.432584 1.836427 131 105 90
-4.256078 -0.1463289 0.6314449 24 12 8
-3.504815 -0.4204512 1.572988 115 72 41
-3.703822 0.04394944 1.602558 82 60 41
-3.57631 -0.7063092 1.094813 74 48 24
-3.882578 0.6940817 1.404708 98 80 65
-3.741509 1.160887 1.30045 90 72 65
-3.843011 0.580115 1.500723 98 85 65
-4.106073 0.8917683 0.9866611 164 48 57
-4.146911 0.5376964 1.118806 197 206 246
-4.009602 1.055744 1.212556 41 28 32
-3.790272 1.127486 1.102516 139 0 0
-4.004236 0.8018458 0.9180561 156 36 49
-3.857232 1.614688 0.6195679 8 8 0
-3.361416 1.97732 0.9844659 106 85 57
-4.030737 0.9520979 1.124876 24 28 32
-4.076997 1.227539 1.078434 90 28 24
-3.594338 -0.3790812 1.593623 106 76 57
-3.614779 1.156205 1.395236 65 48 32
-4.012644 0.8010455 0.9112963 106 36 57
-3.628387 1.411861 1.230176 74 4 0
-3.745759 0.1144151 1.663762 82 60 49
-4.055823 0.6868002 0.9009039 123 0 0
-3.881325 1.633524 0.6154757 255 255 255
-4.108634 0.8131683 0.9874992 148 76 106
-3.636239 1.756567 0.9873407 123 93 82
-3.820321 -0.4076385 1.256294 74 52 24
-3.509686 -0.8178872 1.223243 82 64 41
-4.112938 1.053714 1.160889 57 28 24
-4.004334 0.765433 1.090784 180 149 106
-4.062362 0.7542721 0.8819842 115 56 74
-4.031859 0.71829 1.091219 213 165 123
-3.930659 1.071154 1.133902 74 36 32
-4.036518 0.3317661 1.100996 16 20 24
-3.61415 1.436325 1.617722 106 85 74
-4.146278 0.9003112 0.8931943 156 72 98
-4.252597 0.3526707 1.101924 49 24 24
-4.124716 0.8114929 1.055969 230 129 148
-3.934626 1.233702 1.036462 123 105 82
-4.059199 0.966006 1.080728 164 64 57
-4.121464 0.7067733 1.077257 106 4 0
-3.932129 1.269343 1.073142 131 105 82
-4.358705 0.7213761 1.030229 65 0 0
-3.762491 1.79901 1.059432 115 85 74
-3.136008 1.707182 0.4965385 74 28 8
-0.09979875 0.07231551 0.03471965 82 60 41
-4.112092 0.8836581 0.9133444 131 0 0
-4.156958 0.8518788 0.9788244 139 40 49
-4.12151 0.8236528 0.9132065 139 20 24
-4.142541 0.8019328 0.9460499 139 36 41
-4.246518 0.7388765 1.004613 131 40 49
-4.239539 0.8344169 0.9169401 131 64 90
-4.290478 0.8941159 0.9698136 123 40 57
-4.251541 0.8909575 0.9342995 131 36 49
-4.342386 0.8986799 1.010546 131 36 57
-4.181273 0.8818282 1.013304 90 40 57
-4.27563 0.7603019 0.9883228 131 16 16
-3.670839 1.741428 1.04756 65 44 32
-4.247416 0.4735398 1.165571 57 64 74
-3.992513 0.9613319 1.014838 90 0 0
-3.421308 1.883061 0.5800384 123 93 57
-4.225479 0.4384797 1.110395 0 4 0
-0.958207 -0.3137354 -0.08674381 24 4 8
-0.9918121 -0.2353227 0.03278909 255 85 65
-0.9716856 -0.1050622 -0.06250554 131 8 0
-0.9336193 -0.1026244 0.009098193 106 4 0
-0.9731716 -0.153269 -0.01491817 255 40 16
-1.095498 0.08491161 -0.1999681 164 129 74
-0.948605 -0.1339108 -0.03997386 82 12 8
-1.122826 -0.3256291 0.05460257 180 80 57
-1.032584 0.04636594 -0.1212497 115 89 49
-0.9558255 -0.1349443 0.0008035812 230 0 0
-0.9618042 -0.1696311 -0.03855446 164 48 16
-0.9552969 -0.1051972 -0.04212029 255 133 82
-0.990935 -0.1223768 0.03913354 222 113 74
-1.072363 -0.3327557 -0.09224941 32 8 8
-0.9437591 -0.08782253 -0.03587495 65 8 8
-1.093545 0.08764961 -0.1959075 57 48 41
-0.9789666 -0.09482611 0.006980487 82 0 0
-0.9670117 -0.1086442 -0.01682865 90 12 0
-0.957741 -0.1140825 -0.05249882 164 0 0
-0.9643908 -0.120226 -0.006154874 255 101 57
-0.9366943 -0.1806004 -0.2046955 164 149 115
-0.6911749 -0.2961145 -0.02727372 172 28 16
-1.138959 -0.1894663 0.03608318 255 105 82
-0.9856444 0.01787599 -0.2036601 24 16 8
-0.955543 -0.1170883 -0.02708177 205 44 24
-0.9789915 -0.1778251 -0.0314911 65 28 16
-1.032123 -0.3150364 -0.1239533 106 89 65
-1.222881 -0.340841 -0.03076666 164 28 8
-1.157486 0.1122524 -0.1622277 32 20 16
-1.120708 0.09073902 -0.2233546 213 182 123
-1.248653 -0.1200544 0.05125667 205 97 65
-0.978002 -0.1234368 -0.005206158 255 117 74
-0.9645181 -0.2024009 -0.2021274 0 0 0
-0.9743857 -0.1076184 -0.01165139 255 72 32
-0.973399 -0.1657683 -0.06919803 123 76 41
-0.9632378 -0.1179925 -0.04049239 82 4 0
-0.9659874 -0.1187401 -0.01313395 255 242 222
-0.9598222 -0.1768078 -0.02741584 49 8 0
-0.9945266 0.02963643 -0.1864972 57 44 16
-0.4305631 -0.1750206 0.05253243 139 20 8
-0.9925291 0.02199591 -0.2238839 32 24 8
-1.129997 0.1125116 -0.08645224 41 32 16
-0.9326808 -0.1179131 0.0002932856 180 28 16
-1.361065 -0.02381013 0.1209583 255 190 156
-1.499066 0.08798087 0.1885737 255 182 148
-0.9859419 0.0238015 -0.168073 65 52 32
-0.9982001 0.03464801 -0.1488468 98 76 41
-5.812559 1.779329 1.03127 82 60 41
-5.18673 1.493755 0.8817641 24 4 0
-0.9557769 -0.1649098 -0.05062004 189 68 49
-0.9801655 0.01905292 -0.2024535 57 44 16
-0.9843013 -0.2032463 -0.2091533 0 4 0
-0.9713648 -0.1357969 -0.05132071 255 117 57
-1.046152 -0.3207671 -0.1505927 139 117 90
-0.9335254 -0.168152 -0.204087 115 97 49
-1.04321 -0.3231103 -0.1449071 123 101 82
-1.038359 -0.3146011 -0.141806 0 4 0
-0.955855 0.002873319 -0.1941281 32 24 8
-1.178571 -0.2285849 0.03063327 106 16 8
-0.9641798 0.01021334 -0.1771102 41 28 16
-0.9502094 -0.1186763 -0.03620945 255 40 32
-0.9771083 -0.1460284 -0.002822826 255 141 82
-0.9322633 -0.1780979 -0.2007378 24 20 8
-0.9656807 -0.1706073 -0.02771989 172 68 41
-1.109036 -0.3545615 -0.1139493 32 8 16
-1.385554 -0.1159162 0.1038751 65 40 32
-0.9782261 -0.1473627 -0.02328612 255 76 24
-1.225334 -0.4219914 0.01090844 197 174 123
-1.223549 -0.4182493 0.02586664 238 206 172
-0.9359918 -0.1758437 -0.2050895 255 255 255
-1.13517 -0.3593911 -0.1186378 49 52 57
-1.203251 -0.4007591 -0.1444286 49 48 41
-1.101202 -0.346905 -0.1295773 24 8 0
-1.026424 -0.3211754 -0.133166 49 8 8
-1.134401 -0.3645536 -0.1301963 49 48 49
-0.965847 -0.1365524 -0.005634355 255 101 180
-1.117558 -0.3625925 -0.1383857 49 48 49
-0.9792711 0.02862501 -0.1344723 106 85 49
-1.028587 0.06277476 -0.1019935 82 60 32
-1.000853 0.04570341 -0.1155184 123 101 65
-1.026377 0.05758525 -0.101231 115 89 57
-0.9774975 0.02611523 -0.1445109 90 72 49
-0.8984767 -0.1313988 -0.005405642 255 133 74
-0.9875462 0.02679901 -0.1736361 82 64 32
-0.8729112 -0.09877608 -0.0003966982 255 157 115
-0.9786737 0.02441781 -0.1544569 82 68 41
-0.987575 0.02545022 -0.1871385 82 64 41
-0.993851 0.03537536 -0.1653628 90 72 41
-0.9995072 0.04401115 -0.1289321 74 60 32
-0.9926876 0.03441925 -0.168688 65 52 24
-0.998498 0.03349164 -0.1924771 74 52 24
-0.9990647 0.04111026 -0.1126831 98 80 49
-0.8669929 -0.1111965 -0.009116156 255 174 106
-0.990199 0.03696582 -0.1503921 74 56 24
-0.8616865 -0.1167015 -0.01654416 255 52 49
-0.980679 0.02573273 -0.1325091 156 133 90
-0.9986821 0.03720075 -0.1766936 82 64 32
-0.8785791 -0.1185919 0.004394975 255 194 156
-0.9750227 0.01978975 -0.1790037 57 40 24
-1.005011 0.0290724 -0.2013069 90 68 41
-0.8797556 -0.1161529 -0.00610783 255 178 106
-0.8682942 -0.1198926 -0.006251127 255 80 49
-1.39887 0.2382836 -0.2138324 197 170 123
-0.9673141 0.01335187 -0.162199 90 72 41
-1.083323 0.08376855 -0.1900444 98 89 65
-1.149856 0.1235831 -0.08338929 74 52 24
-1.147376 0.1111467 -0.1586374 65 48 24
-1.263386 0.1742099 -0.1146816 255 255 205
-0.9227778 -0.09837531 -0.04380311 123 12 0
-1.007533 0.03949717 -0.1185719 156 125 74
-1.254618 0.1834345 -0.01087366 180 44 41
-0.9923701 0.03262363 -0.1246588 98 80 49
-6.156733 1.851511 1.106386 16 4 0
-4.153439 0.7303728 0.9388008 164 52 57
-4.237894 0.8365026 0.7548087 123 4 0
-3.955131 1.477153 0.6698378 65 28 8
-3.980571 0.7530257 0.8921644 65 24 32
-0.9801622 -0.1608809 -0.04019106 255 113 49
-1.055407 -0.2408269 0.02753213 230 64 41
-0.9704108 -0.1942038 -0.198937 0 4 0
-1.404814 -0.1194744 0.1026493 255 198 156
-0.9741093 -0.1767377 -0.06362142 189 157 98
-1.135675 0.1160321 -0.08242936 90 64 41
-0.9767423 -0.1560572 -0.01866161 255 97 41
-1.252016 0.1808759 -0.0997835 115 85 49
-0.9760261 -0.1602145 -0.02175187 255 101 49
-1.350128 0.219202 -0.2121835 238 214 156
-0.9661222 -0.1607033 -0.003908345 164 64 32
-0.9678262 -0.132835 0.008297938 238 0 24
-1.084122 -0.3150397 -0.1065319 82 60 41
-1.058988 -0.3177541 -0.1515148 24 4 0
-1.327078 0.2164108 -0.114645 115 85 49
-0.9234504 -0.1156436 -0.06014257 213 24 16
-4.305616 1.679156 0.3259013 41 16 8
-4.395284 1.743097 0.7163031 8 4 0
-3.860096 1.628155 0.702656 123 157 189
-4.31534 1.687057 0.6607055 49 16 8
-4.173375 0.798171 0.944532 156 76 106
-4.16909 0.824361 0.937129 164 52 49
-3.213986 2.565793 0.6369142 106 48 16
-4.113491 1.551875 0.4270101 32 12 8
-3.180974 2.6319 0.5619681 49 28 16
-3.581834 2.292438 0.1623872 65 40 16
-4.141725 1.525367 0.625648 106 60 41
-4.031764 1.603089 0.5077607 0 4 0
-4.077376 1.671347 0.4674598 16 16 8
-4.079236 0.9415969 1.131859 139 36 41
-3.798597 1.368564 1.115546 123 0 0
-3.570322 1.691175 1.003806 82 68 57
-4.399426 1.665088 0.6656849 139 68 41
-4.296391 0.455367 1.055105 32 4 0
-3.251682 2.275305 0.4722326 106 76 57
-4.1769 0.6207032 1.084846 123 0 0
-4.18945 0.5171513 1.069037 115 4 0
-3.796488 1.60883 0.6455672 115 80 74
-3.672636 1.510763 1.084751 115 12 0
-4.165351 0.55472 1.134875 8 12 8
-4.121866 0.7602056 1.120141 16 8 0
-5.547657 1.56198 0.970982 115 60 24
-4.001503 1.409431 1.005383 57 0 0
-4.092358 0.7280679 0.9635992 65 24 41
-4.102154 1.012412 1.11327 16 0 0
-3.170174 2.574279 0.1334279 8 0 0
-3.299412 2.342514 0.318146 57 32 41
-0.1265988 -0.1208169 -0.02839717 49 40 24
-3.370067 2.298228 0.2858242 32 24 16
-3.906517 1.380987 1.062533 57 56 57
-3.292124 2.332938 0.3551345 57 32 41
-2.990533 1.001729 -0.04601974 156 12 0
-4.090347 0.9832721 1.012675 131 0 0
-4.008166 1.151496 1.088015 16 16 16
-4.159895 0.6383792 1.067946 49 52 49
-4.189371 0.531585 1.062744 16 8 8
-4.157788 0.7854214 0.7206517 213 97 57
-3.707752 1.461677 1.087364 123 12 8
-3.74245 1.587282 0.5480787 255 255 255
-2.752341 2.165756 0.7864669 180 218 255
-4.053451 1.006318 1.112968 90 44 49
-4.032861 1.05874 1.145007 82 52 57
-3.982224 1.166639 1.033127 106 48 57
-4.093743 0.8849306 1.129647 32 8 0
-3.62117 1.669796 1.043879 49 36 24
-4.204225 0.6003236 1.12169 41 8 0
-2.582428 0.8771126 0.4243726 32 12 0
-3.919414 1.355693 1.026772 8 4 0
-4.095996 1.09543 1.065152 49 12 8
-3.879216 1.219791 1.040273 49 44 24
-4.233592 0.711597 1.06071 24 4 0
-3.996468 1.430087 1.102229 32 20 16
-4.241311 0.5662262 1.1302 41 4 0
-4.061948 0.891748 1.058241 24 24 24
-3.570605 1.711297 0.9853503 24 20 8
-1.9139 0.1534532 0.2342164 49 32 24
-3.69705 0.4599578 1.791083 139 117 90
-3.80257 2.135282 -0.09196017 32 28 16
-3.815073 1.503277 1.148307 106 8 0
-4.282611 1.705096 0.6722479 8 8 0
-4.127056 0.4653241 1.112404 74 52 57
-4.341814 1.693153 0.4358571 74 28 49
-3.639224 0.7928004 1.361551 106 85 65
-4.281003 1.646211 0.4834545 16 12 8
-3.673784 1.687647 0.5991453 65 24 16
-3.8183 1.953446 0.6712658 57 48 32
-4.215573 1.572347 0.6502047 57 20 16
-3.469244 -0.322471 1.589827 131 97 74
-4.246721 1.674071 0.5707413 0 4 0
-3.877131 1.841632 0.6376569 49 32 24
-3.970477 1.760394 0.5645294 32 32 24
-3.779689 1.583498 1.156626 90 4 0
-0.9837991 0.03353054 -0.1183733 189 165 115
-4.080253 1.72858 0.591489 255 255 255
-3.780092 1.822731 0.5563588 49 40 32
-3.806274 1.448021 1.271296 172 105 82
-3.649369 2.361992 0.2618843 82 56 32
-3.834544 1.953128 0.6553013 74 52 41
-3.720643 1.766438 0.4838331 32 24 16
-3.854727 1.83224 0.6059957 41 32 24
-4.369576 1.764893 0.4323094 8 4 0
-4.121031 1.774758 0.6392787 255 255 255
-3.647072 -0.4209227 1.673624 139 97 65
-3.977519 1.658154 0.5585213 8 12 8
-3.767192 0.01988056 1.368541 115 97 74
-3.850365 1.938924 0.6589752 74 52 41
-3.553223 1.80286 1.510553 123 101 90
-3.859756 0.6941899 1.849096 90 68 49
-3.376107 1.671273 1.781804 106 85 74
-3.85632 0.6928149 1.879312 90 68 49
-4.170646 -0.1457829 0.6218925 41 16 16
-4.24135 1.759665 0.5365291 57 48 32
-4.193669 0.4622831 1.186638 82 8 8
-3.707784 1.581896 1.191746 90 4 0
-3.819194 1.887515 0.6544368 82 56 41
-3.800558 1.869493 0.6026872 213 246 255
-4.064455 1.718199 0.5472525 222 250 255
-3.920212 1.715033 0.7153779 41 4 0
-3.750909 2.353875 0.1696666 8 0 8
-3.687357 -0.4346952 1.680601 148 105 74
-3.806945 1.930813 0.6063135 164 153 180
-4.03405 0.9728277 1.016626 131 0 0
-0.9454395 0.007243606 -0.2182702 41 28 16
-4.003062 1.742598 0.6777763 90 68 57
-3.94357 1.772597 0.6028084 41 36 24
-4.103332 0.315641 1.026913 8 4 8
-5.648866 1.61529 1.008452 57 16 0
-0.9609581 0.0163543 -0.2022171 57 40 16
-3.785793 1.481213 0.6033155 8 4 0
-3.359638 0.803651 0.4471009 230 56 32
-3.759126 0.06652003 1.600306 74 72 49
-4.20292 0.5633509 1.08674 8 8 0
-4.094492 1.121269 0.7362841 24 8 0
-3.808388 1.404506 1.119629 123 0 0
-3.764664 1.206494 1.306876 57 44 24
-3.174259 2.020602 1.256805 74 56 41
-3.530001 -0.8713826 0.4392383 123 60 24
-3.904168 1.480547 0.5650806 98 36 24
-4.120666 1.601468 0.626524 106 44 24
-3.857964 1.56656 0.7009872 16 8 8
-4.117228 0.8869896 1.005347 123 0 0
-4.094686 0.9217041 1.011772 65 0 0
-4.050529 0.7649416 1.174805 139 0 0
-3.958782 1.240369 1.109963 156 12 8
-4.075168 1.139441 0.7512526 156 113 82
-4.187948 0.5851918 1.150974 65 32 32
-3.423891 1.633222 1.379169 32 20 8
-3.890959 0.9037453 1.032286 8 4 0
-3.250894 1.744847 0.9561495 57 40 24
-3.646958 0.4158288 1.364801 90 68 57
-0.3016053 -0.01187317 0.01831223 57 32 16
-5.783664 -0.815976 2.026766 98 72 49
-3.933434 -0.1259595 1.025961 90 4 0
-3.699604 -0.3536508 1.307901 90 68 41
-4.062213 1.075271 0.9984723 131 0 0
-4.141603 -0.127839 0.6114738 16 4 0
-3.94565 0.75459 1.188676 123 4 0
-3.859828 0.7269545 1.465067 90 76 57
-3.78282 0.1084268 1.560508 8 20 8
-3.591109 2.358932 0.7069545 115 89 65
-3.693579 1.176943 1.525904 90 72 49
-3.250506 2.046754 1.22114 90 52 41
-3.685348 -0.4374925 1.224063 98 76 57
-3.483132 1.809232 1.426065 65 52 32
-2.807481 2.195598 0.7874252 98 137 156
-4.230844 0.4418353 1.082129 222 76 65
-4.160144 0.545532 1.06394 57 32 32
-4.14938 0.8615289 0.952777 131 64 90
-3.983549 1.630295 0.4821152 41 28 24
-4.133722 0.7346671 0.9188288 148 8 8
-4.079939 0.7395926 0.9407417 57 8 8
-4.062018 1.568909 0.4893572 8 4 8
-4.006704 1.150803 1.086295 16 12 16
-4.140028 0.6731128 1.108892 24 8 0
-3.983685 1.091377 1.189222 90 4 0
-4.145774 0.5521554 1.143354 8 8 8
-3.99802 1.2914 1.107128 32 28 16
-4.107718 0.7268249 1.076959 57 24 8
-3.560101 1.690188 1.025085 49 36 24
-4.021382 1.056921 1.169136 57 16 16
-4.017711 1.086314 1.152816 24 20 16
-4.154697 0.3134328 1.029722 74 24 16
-3.371379 1.62545 1.350122 65 48 32
-3.919179 1.638519 0.7077292 0 4 0
-4.172277 0.9371259 1.166466 49 4 0
-3.753881 0.6136597 1.529 74 48 32
-3.6718 1.145377 1.460582 74 56 41
-1.512017 -0.2480693 0.5035792 82 60 41
-1.082733 0.06679249 -0.09593046 0 0 0
-0.7287912 0.2715883 -0.2654136 115 64 32
-1.168666 0.1225966 -0.08946259 57 32 16
-1.048299 0.04087828 -0.1193597 115 89 49
-1.259918 -0.1334075 -0.0428558 90 8 0
-1.038472 0.04521398 -0.1408723 32 28 8
-1.078453 0.07161131 -0.09595718 123 89 57
-1.115608 0.09689192 -0.09449738 41 28 8
-0.760459 0.2454342 -0.2771702 123 64 32
-1.081415 0.07044119 -0.09593935 123 97 57
-1.574314 -0.3008659 -0.3145317 255 255 222
-1.235077 0.1427734 -0.3757202 41 28 16
-1.059793 0.04490213 -0.1163809 139 109 57
-1.028581 0.01624893 -0.2248109 49 36 8
-1.279342 -0.118673 -0.02374741 74 0 0
-1.512712 -0.266157 -0.2915562 16 16 0
-1.214724 0.1087732 -0.2390249 230 206 139
-1.107767 0.1833096 -0.3618241 98 72 41
-1.034125 0.02668815 -0.1786199 57 40 16
-0.7116624 0.2705496 -0.2621372 123 68 41
-1.045947 0.344823 -0.3369837 172 105 65
-0.9028496 0.298544 -0.3158223 139 72 41
-0.9446663 0.2945558 -0.3222211 148 80 49
-0.9790434 0.2499858 -0.3306537 156 76 41
-1.215342 0.4090183 -0.3577065 189 117 65
-1.017161 0.4138134 -0.3281616 189 137 90
-1.115491 0.3744047 -0.3444144 172 109 65
-2.300892 0.3808312 0.2280242 255 97 74
-1.158026 0.2491684 -0.3570804 139 68 32
-1.169564 0.5163723 -0.3494003 156 97 65
-0.9916809 0.01743487 -0.1960773 49 32 16
-1.303437 0.5970493 -0.3694946 180 141 90
-0.9572611 0.3735108 -0.3185216 139 72 41
-0.9491515 0.2114887 -0.3301067 139 76 41
-1.638764 -0.3433031 0.05359988 139 20 8
-1.082687 0.4905046 -0.3373601 139 85 49
-1.061819 0.4983686 -0.3326246 164 121 74
-1.147297 0.1249518 -0.3506284 49 32 8
-1.245824 0.3824161 -0.36259 197 109 65
-1.068093 0.07154664 -0.126133 172 129 82
-1.336208 -0.2032808 -0.01922146 255 0 16
-1.111981 0.4127603 -0.3468024 172 85 49
-1.929508 0.6272215 -0.4151679 123 93 49
-1.194406 0.4298781 -0.3557513 197 113 74
-1.049107 0.427837 -0.3421344 164 93 57
-0.9899416 0.03084253 -0.1606155 41 32 16
-1.135996 0.4791244 -0.3510851 172 97 57
-1.052937 0.3866067 -0.341225 164 85 49
-1.117353 0.421982 -0.3478294 172 93 57
-0.9983088 0.008753605 -0.21935 8 8 0
-0.9674873 0.3496406 -0.3337036 180 113 74
-1.007714 0.04202031 -0.1773944 213 190 156
-1.699943 0.4445588 0.0494203 8 4 0
-1.095801 0.4006326 -0.3457832 172 97 57
-3.954862 -0.4369515 0.5271854 32 16 8
-1.184652 -0.2121032 -0.07486306 255 89 57
-1.006094 0.3823174 -0.3371153 180 121 74
-1.109785 0.1047344 -0.2094364 16 12 8
-1.882833 0.6110075 -0.4125043 115 72 41
-0.9972799 0.03266206 -0.1227216 90 72 32
-1.121711 0.1406306 -0.163467 0 4 0
-0.9839729 0.02856242 -0.1671927 32 24 8
-1.073107 0.1179799 -0.08226135 49 36 8
-3.998927 -0.4784525 0.5476699 106 48 16
-1.024653 0.3432016 -0.3392717 172 89 49
-1.012287 0.280152 -0.3402881 172 85 49
-1.595159 -0.4280384 -0.1556846 57 48 41
-1.194161 0.5003291 -0.3566001 222 182 139
-1.000442 0.02954593 -0.1272618 74 56 32
-0.9044705 0.4126946 -0.3304808 172 113 74
-0.9833503 0.02124468 -0.2017163 57 44 16
-1.138603 0.4520078 -0.3516845 197 149 98
-1.13348 0.4307741 -0.3484487 222 178 131
-0.9830356 0.02418934 -0.1898292 41 24 8
-1.826241 0.726203 -0.4105752 222 186 148
-1.186723 0.5445183 -0.3573452 205 161 115
-1.35976 -0.2710641 0.002534943 106 20 8
-2.149583 0.787993 -0.4345662 90 56 24
-1.139089 0.3713794 -0.3499228 189 89 49
-3.975258 -0.4489395 0.5123101 205 129 82
-1.085983 0.3441763 -0.3448031 189 109 65
-0.9387033 0.4191481 -0.3319659 164 93 57
-0.9847985 0.02356023 -0.1981325 49 28 16
-1.248045 0.5430804 -0.3609985 213 170 123
-0.9853288 0.3199306 -0.3368549 164 85 49
-1.248901 0.5879275 -0.3639855 172 113 74
-1.164922 0.1422922 -0.2405945 255 255 246
-1.862095 0.5783194 -0.4102417 106 72 41
-1.521982 0.3537493 0.08745908 180 28 8
-4.278222 0.3951373 1.117494 82 0 0
-0.9371174 0.2832246 -0.3320301 164 89 49
-3.916489 1.307738 1.387414 98 76 65
-1.043241 0.3627807 -0.339813 172 89 49
-1.876405 0.6280423 -0.4118866 123 80 41
-2.168191 0.7382629 -0.4438645 106 80 49
-4.063256 -0.4201105 0.5273002 156 89 41
-1.050064 0.331973 -0.3429141 172 85 49
-3.921855 0.6001348 1.478725 98 80 57
-4.058362 -0.4265586 0.5748188 172 121 65
-1.93346 0.4498082 0.2006074 41 40 32
-1.030035 0.2818269 -0.3368139 164 76 41
-1.47118 0.6755595 -0.3990042 180 141 90
-1.503197 0.7016366 -0.4261244 156 105 65
-1.012051 0.03524921 -0.2207103 213 182 131
-0.7497409 0.3692048 -0.2823889 164 121 74
-1.254324 0.3386552 -0.368006 189 105 65
-2.033383 -0.152719 0.1627732 16 12 8
-1.125839 0.6013315 -0.3464833 172 137 90
-1.061983 0.5402181 -0.3355772 164 125 82
-0.9449795 0.4048254 -0.3153035 148 85 49
-0.9124942 0.550265 -0.3112585 123 76 49
-0.8199494 0.4192272 -0.2930259 148 97 57
-1.409901 0.8209816 -0.4025324 156 117 74
-1.092693 0.6312376 -0.341848 131 89 57
-1.111554 0.3095689 -0.3445847 180 72 41
-0.994671 0.00703653 -0.1798295 24 20 8
-0.9184618 0.4439946 -0.311406 139 89 57
-0.8415415 0.4915398 -0.2974955 123 80 49
-1.21783 0.3729699 -0.3591255 189 93 57
-1.573858 -0.3889899 -0.2617128 74 52 24
-0.8300032 0.3374798 -0.2971058 139 85 49
-0.8683681 0.3030188 -0.3059639 139 72 41
-1.049397 0.6223013 -0.3356443 156 117 74
-1.020844 0.03834509 -0.2444186 123 89 41
-1.162621 0.4483863 -0.346728 189 137 90
-1.028401 0.05379143 -0.09759147 8 4 0
-1.338651 0.6417792 -0.3819389 148 89 49
-1.181021 -0.1464888 -0.06809038 255 48 41
-1.023785 0.3554272 -0.3367259 189 113 74
-2.101452 0.9816642 -0.4677638 205 149 98
-3.456213 -1.042053 1.008783 74 0 0
-1.165925 0.5894989 -0.3585224 172 113 74
-3.365093 -1.101559 1.052181 74 56 41
-1.407251 0.7114702 -0.3893576 205 174 131
-1.146274 0.5925511 -0.3573762 197 161 115
-0.8898972 0.3531892 -0.3212618 156 85 57
-0.8540713 0.4086893 -0.3182796 205 161 115
-2.073774 0.9243192 -0.4601513 205 153 106
-2.533805 1.393612 -0.5455973 164 121 74
-1.654174 -0.1196429 0.1175851 255 141 106
-3.376634 1.357952 -0.07012589 148 12 0
-1.341551 0.6862037 -0.3825094 189 153 98
-1.276054 0.6842954 -0.3780176 197 165 123
-0.9971696 0.01750646 -0.1457925 49 36 16
-1.31262 0.561236 -0.372238 189 141 90
-3.625212 1.384926 1.362897 98 76 65
-0.8844467 0.4449036 -0.32257 197 165 115
-4.28636 0.8212144 0.9320889 156 76 106
-2.391439 0.9953831 -0.102266 222 36 16
-3.941288 1.135937 0.9751466 115 0 0
-3.950171 -0.9322491 0.4071712 123 60 24
-3.461071 -0.6755849 1.501783 98 68 49
-1.007896 0.3150503 -0.3341649 172 89 49
-3.514942 1.385809 1.203538 74 0 0
-3.528959 1.369209 1.030752 90 4 0
-1.346661 0.575599 -0.375015 213 170 123
-3.785624 1.184256 1.012747 98 72 57
-1.107368 0.3358909 -0.3470876 189 85 49
-4.124938 -0.1810789 0.7064659 98 8 0
-3.835547 0.4397946 0.8367855 82 0 0
-3.882375 0.2284044 1.420491 74 56 32
-1.900501 0.1040031 -0.4853707 16 8 16
-3.779435 0.1426519 1.620095 90 68 41
-3.280488 1.759723 0.9652953 74 60 41
-3.751106 1.588305 -0.6601414 172 137 90
-2.785653 1.182285 -0.1205271 205 28 16
-2.406387 0.9964885 -0.08383471 205 44 32
-6.122807 2.728722 -0.6565154 8 4 0
-4.364447 0.017079 0.7226759 106 4 0
-4.142828 0.6194731 1.140948 98 8 0
-4.14459 0.5761926 1.169528 8 8 8
-3.70224 1.563298 1.118784 106 12 8
-3.823956 1.122466 0.6941116 49 32 24
-4.246212 0.4126455 1.086125 0 0 0
-2.662454 1.102573 -0.0906754 115 8 8
-4.14067 0.9145138 0.7485285 115 4 0
-4.126445 0.8411942 0.9465033 131 64 90
-2.637177 1.811641 0.1734235 41 32 16
-3.83203 0.4889389 0.5940672 213 133 90
-3.26477 1.870776 0.47848 82 60 41
-4.079716 0.9046374 1.057063 49 56 57
-4.063193 1.069814 0.7160867 24 8 0
-2.683738 1.857624 0.1840662 65 52 32
-3.884791 1.279392 1.036058 106 85 65
-3.967191 1.144009 0.9861157 115 0 0
-3.8622 1.502001 0.6687834 90 64 41
-4.082414 0.8889821 1.06411 16 16 16
-4.132258 0.7557099 1.045919 238 255 255
-3.981912 1.103253 1.048584 65 72 74
-4.139576 0.7051955 1.053727 246 255 255
-4.033748 1.205768 0.6553742 16 8 8
-3.99328 1.20354 0.6926012 172 133 98
-4.009164 0.9661081 1.19994 32 32 32
-3.702333 1.463873 1.062072 115 0 0
-3.916627 1.174944 1.050522 41 48 41
-4.252463 0.2953093 1.108126 24 24 32
-3.910556 1.585544 0.416378 0 4 0
-3.892786 1.295931 1.031394 123 105 82
-4.057171 0.8932166 1.03346 57 60 65
-4.080095 1.114823 0.6797587 49 12 8
-4.098326 0.9189304 1.013098 65 0 0
-3.742964 1.297261 0.9721113 57 4 0
-3.518513 1.815201 0.6169226 90 64 49
-4.140187 0.773748 1.082068 189 44 16
-3.931985 1.303684 1.036376 106 97 74
-4.044953 0.9350384 1.104209 16 16 16
-4.030559 0.9704321 1.10821 131 8 8
-4.190219 0.6839147 1.115982 8 8 8
-4.076658 0.9160368 1.045264 16 12 16
-3.857733 1.22992 1.071681 123 101 82
-4.2413 0.3310589 1.134312 41 48 57
-4.118894 0.8975953 0.9121011 148 56 74
-4.190926 0.5424803 1.129034 230 250 255
-4.109319 0.8920238 0.7848586 139 12 8
-3.953028 1.084302 1.058139 49 60 74
-3.877638 1.377528 1.150624 65 4 0
-4.133939 0.7084379 1.176384 16 8 8
-4.155999 0.6021856 1.164506 98 20 24
-4.06556 0.8650959 1.009544 106 0 0
-3.906066 1.235684 1.120136 148 4 0
-3.791529 1.73347 0.765231 82 4 0
-4.168383 0.3135922 1.06635 8 8 8
-4.067818 -0.1578303 1.020083 131 8 0
-2.865513 2.244105 0.8034279 131 165 197
-1.020444 -0.1687802 -0.2230746 205 186 106
-1.143829 0.2763476 -0.3554256 172 93 49
-1.03529 -0.1727434 -0.2285202 255 255 255
-0.9605071 0.00379137 -0.3508186 57 44 16
-1.196015 0.5422783 -0.3495992 156 105 65
-0.9544665 0.3189485 -0.3457559 139 72 41
-1.240086 0.4429195 -0.3603424 164 85 49
-0.899748 0.1329963 -0.06490885 16 12 8
-1.119646 0.1514135 -0.2490437 255 255 255
-1.227933 0.3931935 -0.3569629 189 89 49
-1.027112 -0.1265327 -0.04815305 255 4 24
-1.042802 0.1886528 -0.3458775 139 101 57
-1.157092 0.4485984 -0.3531004 172 105 65
-0.9678544 0.3447291 -0.3437037 148 85 49
-1.022259 0.1854408 -0.3439976 156 117 65
-1.01321 0.04074607 -0.3005232 123 89 41
-1.036296 0.296472 -0.3515617 164 97 57
-1.298784 0.2495094 -0.2827858 222 56 24
-1.04637 -0.1863527 -0.232592 32 12 0
-1.092209 0.1517629 -0.07283745 32 12 8
-1.047392 -0.1826946 -0.21082 255 255 255
-1.058727 -0.1653633 -0.05613397 49 24 8
-0.9323856 0.2097849 -0.3484159 131 85 49
-1.024223 -0.0519167 -0.2518761 57 36 8
-1.130913 0.2597283 -0.3543815 164 80 41
-1.025784 0.06839996 -0.1995268 16 16 8
-1.096905 0.1141042 -0.2850684 0 0 0
-1.092641 0.2457546 -0.3546051 164 80 49
-1.081115 0.1924183 -0.3452694 98 68 32
-1.14832 0.1978065 -0.3565022 82 52 24
-0.9753296 -0.05064986 -0.1846607 57 4 0
-0.9733684 0.03873358 -0.253037 49 36 16
-1.143023 0.4923767 -0.3524657 148 80 49
-0.9926971 0.3914306 -0.3460932 172 121 74
-1.077813 0.1230059 -0.1695637 49 24 0
-1.036648 0.4129981 -0.3484538 139 72 41
-0.9908323 0.04578562 -0.185278 0 0 0
-1.114211 0.1938349 -0.3526002 90 60 24
-1.058856 -0.1923949 -0.2166292 24 16 8
-0.9791721 0.2362966 -0.3503929 156 93 49
-1.053879 -0.02646765 -0.3635243 41 28 8
-0.9913024 -0.1311717 0.004462026 189 28 24
-1.001406 0.0400169 -0.2311844 57 36 16
-0.9270939 0.001091075 -0.3498324 49 32 16
-1.068585 0.4123052 -0.3496506 180 129 82
-1.063574 0.1724233 -0.3492289 98 72 32
-1.031596 0.351547 -0.3512064 139 72 41
-1.172351 0.3498474 -0.3542111 189 109 65
-1.137448 0.1361495 -0.2783283 0 0 0
-1.08247 0.1868891 -0.3516702 106 76 41
-0.9298477 0.1097762 -0.03818165 172 12 0
-1.145979 0.2454154 -0.3478736 123 52 24
-1.061374 0.447213 -0.3470751 148 89 49
-0.9585775 0.02009013 -0.1779356 49 32 8
-0.9873918 0.05335609 -0.1000835 123 93 57
-0.9322333 -0.1102838 -0.3530706 82 64 32
-0.9457995 0.4448099 -0.3414321 164 113 74
-1.214028 0.1910015 -0.2091253 0 0 0
-1.02964 0.2996197 -0.3491023 164 101 57
-1.149438 0.1744278 -0.2761935 16 4 0
-1.148341 0.2660261 -0.3526133 148 60 32
-1.129591 0.1492648 -0.3083353 115 85 57
-1.077262 0.3607095 -0.350386 164 101 57
-1.085858 0.1403254 -0.1052333 106 76 41
-0.9939525 -0.1285558 0.0008287834 255 149 106
-0.9926139 -0.1992866 -0.3667129 65 44 16
-1.019854 -0.09821346 -0.2327937 0 0 0
-0.9665329 0.3484033 -0.3477238 148 89 49
-1.091989 -0.2100176 -0.2282446 24 16 8
-1.027709 0.4099842 -0.3466317 139 72 41
-1.06465 0.3330276 -0.349378 156 80 49
-1.054968 -0.1902378 -0.2233409 8 8 0
-1.043604 -0.1726139 -0.02431861 24 12 8
-1.191759 0.2794518 -0.3622949 156 60 32
-1.037254 0.2430442 -0.3499089 156 72 41
-0.9155183 -0.0251119 -0.351815 49 32 8
-0.9972656 0.03810089 -0.3491568 57 40 16
-1.124673 0.171114 -0.111233 255 255 255
-0.9600118 0.07298172 -0.3514949 90 68 32
-1.070461 0.2167085 -0.3521575 139 85 49
-1.137846 0.1467361 -0.3367109 49 28 16
-1.160086 0.1683837 -0.2079841 213 149 98
-1.043761 -0.07700495 -0.04567593 115 20 8
-0.9626382 0.009724594 -0.198463 16 12 8
-0.9800748 0.2944438 -0.3479453 139 76 41
-1.046843 0.0946327 -0.1825346 255 255 255
-1.063256 0.06876013 -0.1952699 255 255 255
-1.011849 -0.1209409 -0.01637446 255 246 222
-1.121934 0.4088946 -0.3482463 156 85 49
-1.148573 0.1637408 -0.2504231 65 48 24
-1.16297 0.1669452 -0.3177429 90 68 49
-1.153947 0.1561736 -0.1516639 32 4 0
-1.100718 0.4421969 -0.3497956 164 101 57
-0.9490178 -0.01104235 -0.3523823 57 40 16
-1.086266 0.07059334 -0.2655412 8 4 0
-1.090268 -0.1865648 -0.04119679 41 20 8
-0.9362242 0.375097 -0.3438978 148 97 57
-0.9899817 0.03283465 -0.2502663 57 40 16
-1.039884 0.236109 -0.3488683 156 76 41
-1.010816 -0.1013029 -0.3571022 49 36 16
-1.074808 0.1017905 -0.295148 24 16 8
-0.9886664 -0.1182936 -0.03371156 49 4 0
-0.9949884 -0.09380417 -0.009675342 255 125 90
-0.9810649 0.03883304 -0.1149172 98 80 49
-1.048973 -0.1903583 -0.212955 24 16 8
-1.059485 0.3317384 -0.3486629 148 72 41
-1.08732 0.5040215 -0.3437335 148 93 57
-1.081046 0.07761228 -0.3004104 16 12 8
-1.121639 0.1366324 -0.1969493 0 4 0
-0.9553314 -0.1163258 -0.3555385 65 48 16
-0.9342881 -0.1242209 -0.3574243 65 40 16
-0.956376 0.3510815 -0.3458035 148 93 65
-1.111911 0.1433202 -0.3554092 82 56 24
-1.157907 0.3611667 -0.3537468 172 80 41
-1.007964 0.3904537 -0.3455786 139 76 41
-0.9842485 0.4257171 -0.3450191 148 93 57
-1.057436 0.09231703 -0.2063393 8 8 8
-1.177981 0.2366368 -0.3576244 115 48 16
-0.9864487 -0.06447435 -0.3467898 49 36 16
-1.217099 0.2120534 -0.3161502 0 4 0
-1.114817 0.1520057 -0.139474 0 0 0
-0.985154 0.01534071 -0.2468533 8 8 0
-1.005891 0.2827084 -0.3507265 148 80 41
-1.082388 0.1098988 -0.2312049 8 12 0
-0.9402221 -0.2554272 -0.3703245 98 76 41
-0.9748577 0.05474777 -0.3484094 74 52 24
-0.961924 -0.1128234 -0.3570779 49 36 8
-0.953725 0.311662 -0.3461232 139 72 41
-1.216031 0.4556364 -0.3551991 205 161 106
-1.088 0.1062716 -0.1197492 0 0 0
-1.140008 0.06576636 -0.2584439 41 28 8
-1.061402 -0.237149 -0.0607016 32 8 0
-1.04429 0.2401291 -0.3513029 172 97 57
-0.9809511 -0.1223331 -0.3576677 65 48 16
-1.062473 0.3788284 -0.3457393 148 72 41
-1.080337 0.3667487 -0.3498035 156 85 49
-0.9284235 -0.1635788 -0.3562897 65 48 24
-1.116698 0.4824886 -0.3483979 172 121 74
-0.9755594 0.2435919 -0.3469873 156 93 49
-1.068074 -0.3174697 -0.3921663 106 80 49
-1.091362 0.1215516 -0.19945 238 218 164
-1.005801 -0.1991649 -0.3665609 82 60 24
-1.043705 0.3406291 -0.3507556 164 101 65
-0.9768721 0.03649396 -0.2137544 205 178 123
-1.135239 0.1758839 -0.1136048 255 246 213
-0.9959521 0.3928942 -0.3470035 172 117 74
-1.007128 -0.09175216 -0.01108202 90 24 8
-1.055587 -0.3158254 -0.3816826 106 76 41
-0.9068012 -0.1387209 -0.3595752 106 80 41
-0.789885 -0.3783331 0.2119709 148 64 65
-0.9870329 0.03567222 -0.2117984 213 182 131
-0.9397219 -0.2034189 -0.3671923 98 72 32
-1.086512 0.09430373 -0.2052284 255 242 172
-1.062239 0.05617971 -0.2857705 230 198 139
-0.9860853 -0.1133178 -0.06077874 230 28 24
-1.039534 0.0754642 -0.3548805 82 52 24
-0.9700478 0.2661192 -0.3456707 148 76 41
-1.128723 0.1756165 -0.350604 90 68 32
-1.117411 -0.2818049 -0.3796982 65 40 16
-1.035959 0.3773218 -0.3512454 172 109 65
-1.51487 0.4567766 -0.3548199 106 68 32
-1.168879 0.3027582 -0.3532923 180 85 49
-1.051898 -0.1574889 -0.2157579 16 12 8
-3.096413 -0.3123438 0.3737694 123 68 41
-1.662073 0.592733 -0.3590992 189 157 115
-1.08872 0.1084147 -0.2903334 180 157 115
-3.004198 -0.541609 0.3759783 131 60 16
-1.169593 0.4448391 -0.3560874 180 129 98
-1.055952 -0.1434637 -0.04057714 255 105 82
-1.189155 0.1981508 -0.244246 255 255 246
-1.092383 0.09909177 -0.2815135 8 8 8
-0.9883057 0.03010939 -0.234752 74 56 24
-0.9606572 0.4537799 -0.3505689 164 105 65
-1.033322 -0.01977801 -0.2524106 0 0 0
-1.160004 0.1717317 -0.2577879 8 4 0
-3.008633 -0.3322293 0.3938059 41 16 16
-1.533632 0.55607 -0.3591239 189 153 106
-1.877506 0.8032233 -0.3702126 189 145 98
-1.087573 0.1567175 -0.08214612 74 56 32
-1.167054 0.2155257 -0.1338132 57 40 16
-1.028787 0.03271458 -0.2951927 90 68 32
-1.032966 -0.173928 -0.2297896 255 255 255
-1.012733 0.3193465 -0.3494166 156 80 49
-1.060062 -0.1580859 -0.012004 189 40 24
-1.044129 0.0757027 -0.1762006 8 4 8
-1.054433 -0.1669758 -0.2124702 106 76 32
-1.07001 -0.1413988 -0.2312411 0 0 0
-1.065862 0.1022921 -0.1669545 41 28 16
-0.9410857 0.2867354 -0.347106 172 117 74
-1.06295 0.3637893 -0.3518666 172 89 49
-0.9914374 0.01268448 -0.2378861 8 0 0
-0.9743372 0.02575479 -0.1782018 32 24 8
-1.058072 -0.1673344 -0.2318261 255 255 255
-1.153374 0.2629441 -0.3517957 156 72 41
-1.048236 0.2794567 -0.354278 164 76 49
-3.009722 -0.5627376 0.3450997 98 44 8
-1.027547 -0.1231599 -0.01639129 238 214 180
-1.181408 0.2226762 -0.1454797 57 44 16
-0.9661543 0.3890815 -0.3511123 164 89 57
-1.014077 0.4341269 -0.3522896 156 93 57
-0.9862927 0.2392471 -0.3486282 148 85 49
-1.745791 0.5960513 -0.3671256 156 125 74
-0.9819729 0.3720838 -0.3503298 164 105 65
-1.085255 0.4504094 -0.3535395 189 129 82
-1.918839 0.8096117 -0.3684225 90 56 24
-1.003815 -0.1022063 -0.01495016 255 255 246
-3.015189 -0.5454942 0.3489871 49 12 0
-1.021627 -0.06273877 0.02069912 255 178 131
-1.103193 0.4368654 -0.3512049 180 105 65
-1.859124 0.6015094 -0.4469827 164 97 57
-0.9524533 -0.03913985 -0.3559012 65 48 16
-1.161117 0.1788067 -0.2624629 0 4 0
-1.718079 0.748572 -0.3651603 222 190 139
-1.160256 0.1565601 -0.07994109 32 20 8
-3.026457 -0.5162968 0.3246067 65 28 16
-1.153415 0.5069548 -0.3556279 197 145 98
-1.087183 -0.1996183 -0.239488 238 210 172
-1.20477 0.4250034 -0.3550135 197 101 57
-0.9726447 0.01562937 -0.1596799 41 24 8
-0.9804624 0.02723825 -0.1316661 74 52 24
-1.007469 0.00502269 -0.2445383 74 56 24
-1.132522 0.1508922 -0.2364904 90 76 49
-0.930611 0.2646948 -0.3477527 172 105 65
-1.069498 -0.1956383 -0.20621 8 8 8
-1.761287 0.6466901 -0.2415927 213 48 24
-1.115875 0.1507305 -0.2059488 32 16 8
-1.052917 0.2012724 -0.3486302 123 89 49
-2.982367 -0.5693949 0.3401225 172 113 65
-1.405171 -0.3896039 0.03540134 65 32 16
-1.052521 0.1235306 -0.07966662 57 32 8
-1.039427 0.4285748 -0.3524344 164 85 49
-1.154994 0.3600785 -0.35301 197 93 49
-1.067055 0.106393 -0.1614807 16 8 8
-1.10447 0.4954451 -0.3554537 156 85 49
-1.119446 0.4802187 -0.3553161 172 97 57
-1.728629 0.7774588 -0.3683881 246 206 164
-1.109698 0.4575971 -0.3557904 172 97 57
-1.079703 0.4593798 -0.3541177 172 105 65
-0.975578 0.02425274 -0.1546682 65 48 24
-1.665604 0.6523974 -0.3642553 197 161 115
-1.137462 0.3953759 -0.3521295 189 117 74
-1.120047 0.1424171 -0.2193357 24 20 8
-0.9994582 0.0416896 -0.351757 74 56 32
-1.072796 -0.2493227 -0.374345 74 56 24
-1.107197 0.1236863 -0.2105743 255 255 230
-1.045656 0.3578932 -0.3503217 180 113 74
