ply
format ascii 1.0
element vertex 1217
property float x
property float y
property float z
property uchar red
property uchar green
property uchar blue
end_header
-0.04931638 1.013278 0.01528896 57 44 41
-0.08228491 1.110967 -0.0346996 90 56 49
-0.08267148 1.108396 -0.09548448 41 28 24
-0.07887292 1.097728 -0.07991833 74 52 49
-0.04338679 0.9840979 -0.111091 49 36 32
-0.03493187 0.9559602 -0.1129003 74 56 57
-0.07988324 1.099171 -0.1088165 82 60 65
-0.06739933 1.072142 0.05967444 90 64 57
-0.0410435 0.9839963 -0.02262668 98 68 65
-0.0567436 1.029382 -0.09369043 74 52 49
-0.0354411 0.9671922 0.006122202 82 56 57
-0.068678 1.072321 -0.005233215 82 56 49
-0.03612242 0.9664356 -0.03595138 82 60 57
-0.05249885 1.013926 -0.1143294 57 48 49
-0.04693984 0.9949031 -0.1233088 49 44 41
-0.05639768 1.036672 0.04025782 82 60 57
-0.07368895 1.079236 -0.1134885 82 68 65
-0.03515174 0.9644434 -0.02752445 90 68 57
-0.04919604 1.000518 -0.1223369 82 68 74
-0.03537535 0.9588642 -0.1059659 74 64 65
-0.06581706 1.056293 -0.1049793 49 32 32
-0.03373599 0.9635855 0.02626005 65 52 49
-0.06423672 1.062908 0.06254856 90 68 65
-0.05103769 1.019711 0.03414927 106 76 65
-0.04086446 0.9822434 -0.03637516 82 64 57
-0.03474373 0.9549728 -0.103 49 40 41
-0.06075156 1.045711 -0.03685858 49 44 41
-0.05262379 1.019597 -0.05503673 98 68 65
-0.03422874 0.9580256 -0.0549826 49 36 32
-0.0603074 1.037661 -0.1117337 49 44 41
-0.03916283 0.9737965 -0.05614353 82 64 57
-0.08191711 1.114324 0.02837821 49 32 32
-0.0722403 1.079563 -0.09010804 32 28 24
-0.04092744 0.9752521 -0.1214772 74 56 49
-0.06106825 1.051794 0.02888352 49 40 32
-0.05760912 1.043337 0.07989341 82 60 65
-0.04573852 1.003126 0.02550101 90 68 65
-0.05822379 1.034202 -0.08360804 74 56 57
-0.03468643 0.9656733 0.01710726 65 48 49
-0.04340203 0.9853409 -0.09683143 49 36 41
-0.03367637 0.9589238 0.003567555 90 85 82
-0.07759216 1.096092 -0.03127834 82 56 57
-0.04787358 1.008793 0.02610277 82 64 57
-0.03229514 0.9575236 0.02406492 57 48 49
-0.05671272 1.039436 0.063956 16 20 16
-0.07393415 1.092241 0.06031186 41 28 24
-0.05833323 1.043401 0.06309059 49 44 41
-0.05983763 1.042215 -0.05576682 57 44 41
-0.06262063 1.04985 -0.05428632 24 16 16
-0.05616939 1.034845 0.00194826 49 40 41
-0.07920758 1.103892 -0.0190857 49 36 32
-0.07121915 1.078085 -0.02890235 74 56 57
-0.06755044 1.062086 -0.1165457 32 24 24
-0.04690695 0.9949751 -0.1187172 49 44 41
-0.001969612 0.84759 -0.08824205 57 40 41
0.007525402 0.8248472 0.0377112 98 72 74
-0.005984121 0.8602107 -0.1007887 57 36 41
-0.009256411 0.8778603 -0.0242661 82 64 57
0.01214023 0.8100212 0.04975474 82 60 57
0.005476949 0.830268 -0.1325005 65 60 57
0.01963933 0.7837906 0.01623208 74 56 57
-0.02422022 0.9310293 0.004844676 82 64 57
-0.01458932 0.8941227 -0.05574865 74 60 57
0.009894428 0.8082313 -0.09063507 65 44 41
0.01842458 0.7881849 -0.1320504 74 60 57
0.01009195 0.8062131 -0.1071281 65 48 49
0.003081948 0.8331935 -0.04451558 74 60 57
-0.001795895 0.8457773 -0.119544 49 36 32
0.0223008 0.7694039 -0.05644995 82 56 57
-0.05071805 1.00764 -0.1063076 49 36 32
-0.03575364 0.9681103 -0.00366555 82 64 57
-0.003672611 0.8547055 -0.0835574 57 48 41
0.01256339 0.7966351 -0.1297112 57 44 49
-0.005170163 0.8671974 0.01318675 115 85 82
0.01509834 0.7975722 -0.005068896 90 68 65
-0.01968301 0.9137802 -0.01281598 57 52 49
-0.02908329 0.9493679 0.04047724 98 80 74
-0.007962928 0.8698223 -0.06612162 82 68 65
-0.01097718 0.8838986 -0.1449156 57 48 49
0.02873151 0.747934 -0.03364502 90 64 65
-0.0217071 0.9180993 -0.04116766 90 68 57
-0.01497906 0.8952242 -0.04761472 98 72 74
-0.02077865 0.9224483 0.06365754 90 68 65
0.008145863 0.8346124 -0.1702952 131 133 148
-0.03755547 0.9694356 -0.05500278 57 44 41
0.0116329 0.8064783 -0.04914466 65 48 41
0.0134064 0.8028044 -0.001237373 82 56 57
-0.005066537 0.8609008 -0.05293261 57 44 49
-0.03077072 0.9508289 0.02154447 90 64 57
-0.008514702 0.8781298 0.02196679 115 85 82
-0.02904488 0.9412192 -0.06536413 90 68 65
0.02268844 0.7677518 -0.06580843 65 52 41
-0.01086546 0.884096 -0.004158212 82 68 65
0.002435272 0.8355829 -0.06172051 65 52 49
0.02481179 0.7590788 -0.09264861 74 56 57
-0.008891123 0.8740381 -0.07174113 65 48 49
-0.009943486 0.8751594 -0.08202438 98 72 74
-0.9539195 0.5973835 0.5927416 57 64 65
0.01582367 0.7868847 -0.1034961 98 72 65
0.02500662 0.7607011 -0.05445626 74 56 49
-0.002823597 0.8579997 -0.150346 65 48 49
0.005223097 0.8359434 0.08065625 90 76 74
0.02297862 0.7691754 -0.02975103 65 52 49
-0.01145608 0.8846379 -0.02625761 82 64 65
-0.04640088 1.001271 -0.01701822 82 60 57
-0.02214036 0.9220132 -0.0196998 90 68 65
-0.0001997002 0.8411546 -0.1005037 82 64 57
0.01937162 0.7807394 -0.04278662 98 68 65
-0.03386737 0.9570811 -0.06647519 57 44 41
-0.04650727 1.007315 0.1023388 82 60 65
-0.009775766 0.8777744 -0.04280164 82 64 65
-0.007037557 0.8641193 -0.1054222 65 48 49
0.008904001 0.8140752 -0.05962713 90 72 65
0.02990382 0.7448938 -0.01191987 65 44 41
-0.02224474 0.9237456 -0.01274152 65 44 41
0.02015712 0.7755232 -0.05542876 98 89 82
0.00408808 0.8357434 0.02034299 90 72 65
-0.01262221 0.8819945 -0.1147084 57 40 41
-0.007868244 0.8650287 -0.09302189 90 68 65
-0.02501553 0.9244481 -0.1039526 57 36 32
-0.01473368 0.897874 0.0002051447 65 52 49
0.002673878 0.842284 0.02960651 98 76 82
0.004721918 0.8279828 -0.07427713 57 44 41
0.0292115 0.745876 -0.02974248 74 52 49
-0.03308752 0.9524556 -0.09779219 82 60 57
-0.03469765 0.960647 -0.04157729 82 56 49
0.01644333 0.7908276 -0.02717157 65 52 49
0.008989985 0.8118519 -0.06406873 115 97 98
0.01300035 0.8036844 -0.005076976 98 68 65
-0.07165869 1.081628 -0.00239006 74 48 49
-0.004224176 0.8616539 -0.1433376 49 40 41
0.0003135024 0.8449273 -0.02509518 90 72 74
0.02550176 0.7605337 -0.01250605 74 48 41
0.02823064 0.7465265 -0.1063815 74 52 57
0.01098747 0.8118118 0.01484225 98 76 74
0.0006920317 0.8466761 -0.1379316 74 60 57
0.004408878 0.8275427 -0.0800503 49 48 49
-0.08385134 1.115343 -0.05319943 74 48 41
0.02801418 0.7505602 -0.03572528 74 52 49
0.02520383 0.7551634 -0.1189335 74 56 57
0.01243084 0.7979906 -0.115906 90 68 65
-0.0233063 0.9281921 0.01405643 65 52 57
-0.00982735 0.8810789 -0.01159755 65 48 41
-0.9635064 0.6610354 0.6419431 49 52 57
0.01572721 0.7963322 0.004940025 74 52 49
0.01185344 0.802798 -0.08153599 57 48 41
0.006091998 0.8275315 -0.00288582 57 48 49
0.00215261 0.8420267 0.003531602 74 56 57
0.02277282 0.767956 -0.04412468 82 60 57
0.02274103 0.7673971 -0.0514118 65 48 49
0.01203272 0.8025422 -0.06970628 90 72 65
0.02234521 0.7676121 -0.07253303 57 44 41
-0.000661532 0.8517951 0.02980402 98 76 74
-0.01302545 0.88285 -0.1190775 82 60 57
0.006369745 0.8219734 -0.05135765 74 60 57
-0.009035103 0.8765921 -0.03565885 90 68 65
0.001085421 0.8401657 -0.05719254 74 52 49
-1.732432E-05 0.8436836 -0.05762388 90 68 65
-0.02287804 0.9243371 -0.01022637 82 60 57
-0.007574978 0.8649958 -0.1177106 90 56 57
-0.01968362 0.9102255 -0.06255126 98 72 74
-0.05091287 1.014083 -0.03755816 82 64 65
-0.02874524 0.9398623 -0.06867379 57 44 49
0.005426422 0.8299442 0.006308566 90 68 74
0.0198583 0.7782666 -0.06423357 90 68 65
-0.02877111 0.9409035 -0.0595041 57 40 41
-0.02236821 0.9192761 -0.05551701 65 48 41
-0.008876669 0.8752478 -0.04429545 65 48 49
0.01318407 0.7979175 -0.08530717 82 60 57
-0.02165064 0.9154131 -0.07407299 57 44 41
-0.02770553 0.9345124 -0.08332609 41 32 24
-0.01002775 0.8746794 -0.09718332 65 40 41
-0.01785131 0.9014181 -0.08630944 90 64 57
-0.02358441 0.9253777 -0.03819291 90 68 57
-0.008492394 0.877217 -0.003580359 106 80 74
-0.009452488 0.8836563 0.03402315 74 56 65
0.01593778 0.7904742 -0.0778295 65 52 49
-0.01060888 0.8851578 0.01417014 82 60 57
0.01281909 0.797807 -0.1133147 74 52 49
0.01540263 0.7977378 0.007202235 98 72 74
-0.03638653 0.9661558 -0.04802343 90 68 65
0.01300753 0.8025512 -0.02225555 74 52 41
-0.0193702 0.9137777 -0.001534774 65 48 49
-0.01752478 0.9019673 -0.08036145 65 48 41
-0.01365188 0.8895577 -0.0667015 65 48 49
0.01184129 0.8013929 -0.09362096 90 72 74
0.02561027 0.7595862 -0.04742075 65 52 49
-0.01156757 0.8842182 -0.04278488 65 48 49
0.0003095983 0.8395702 -0.08566029 82 64 65
-0.9833177 0.704785 0.6849895 49 48 57
0.01345633 0.7979069 -0.06125688 98 68 65
0.01055343 0.8127064 -0.0005470389 74 52 49
-0.01670939 0.9072201 0.04811372 65 56 49
-0.05157776 1.022201 0.05399783 90 68 65
-0.01194529 0.8839811 -0.06293163 57 44 41
0.0210138 0.7685094 -0.1146313 57 48 49
-0.01464119 0.8994034 0.02549702 106 85 82
0.02993245 0.7452628 -0.03955372 65 48 49
-0.01348079 0.8958175 0.03619855 82 64 65
-0.008458526 0.8718464 -0.06790747 57 44 41
0.02291101 0.766328 -0.08004139 65 44 41
0.01979093 0.7757157 -0.08181842 90 68 65
-0.01268972 0.8902806 -0.003955933 57 48 49
0.007849848 0.8216884 -0.00230851 82 64 57
0.02377104 0.7610897 -0.1127905 82 68 65
0.02845235 0.7522346 -0.01860836 74 48 41
-0.009833416 0.8781616 -0.03169777 49 44 41
0.0203219 0.7719104 -0.1100189 90 68 65
-0.006336431 0.8697614 -0.008440731 74 52 49
0.01674798 0.7857345 -0.08799003 98 80 74
-0.01360615 0.8900476 -0.06312925 65 48 41
-0.01252826 0.8835697 -0.08519942 74 56 57
0.01784061 0.785925 -0.03208128 65 52 49
-0.02866666 0.9359754 -0.114386 49 36 32
0.02621292 0.7603893 -0.0001446114 65 48 41
-0.0006799971 0.8458471 -0.07348771 65 52 49
0.02791668 0.7596245 0.0459489 32 28 24
-0.008111197 0.8789623 0.03420392 32 28 24
-0.01324113 0.8940766 0.03950618 49 36 32
-0.01470149 0.8993677 0.02813835 32 28 24
0.01341774 0.8091453 0.09150042 49 44 49
-0.2072733 0.9409773 0.4094537 16 28 32
-1.026604 0.8119847 0.5990451 24 28 32
-0.963447 0.6713475 0.6495886 57 56 57
-0.9620302 0.6329958 0.5599378 32 32 32
-0.9574487 0.6665123 0.669632 57 64 74
-0.9555312 0.6141242 0.7735897 8 16 16
-0.9890305 0.7141523 0.570556 32 36 41
-0.9757153 0.6905589 0.6057713 49 52 57
-0.9697909 0.6890303 0.6610346 49 52 57
-0.9514468 0.5865082 0.5999587 41 56 57
-0.9501352 0.601377 0.7661377 24 24 32
-0.1977067 0.9358007 0.4199494 16 24 24
-0.2051868 0.9390906 0.4299082 8 16 24
-0.2042863 0.9386352 0.418053 41 60 65
-0.207213 0.9410497 0.4373519 8 20 24
-0.9949795 0.734 0.7976947 32 36 32
-0.9611576 0.6316533 0.7601506 8 12 16
-0.9511235 0.5840352 0.6222739 49 52 57
-0.8992376 0.7047997 0.8112155 0 0 0
-0.9408875 0.553493 0.8570741 49 52 57
-0.9657475 0.6807593 0.6614581 32 32 41
-0.9639553 0.6709089 0.7095715 49 56 65
-0.9563137 0.6157962 0.5634058 32 40 41
-0.8945252 0.736852 0.8394771 0 8 8
-0.9767988 0.6941707 0.6698644 8 8 8
-0.951242 0.5801359 0.6922373 57 64 65
-0.9474863 0.5886421 0.5537249 32 36 32
-0.9423063 0.5781031 0.8884361 82 85 90
-0.9496748 0.57556 0.6884623 65 76 82
-0.9937604 0.7213771 0.5975271 41 48 49
-0.8962197 0.7353524 0.8594223 65 80 90
-0.964668 0.6686068 0.5732054 41 40 41
-0.9549512 0.6097472 0.5883487 41 56 57
-0.9651668 0.686219 0.6711735 32 40 41
-0.9831207 0.699508 0.6260191 49 48 49
-0.984536 0.7016935 0.6773875 57 64 74
-0.9234775 0.5136216 0.6797624 131 109 106
-0.9393737 0.5375925 0.7822183 49 52 57
-0.9883807 0.7138217 0.5960944 8 8 8
-0.9841528 0.7011368 0.5702956 24 32 32
-0.9843924 0.7015311 0.6788811 65 68 82
-0.9944047 0.7299337 0.6452876 49 52 57
-0.9532178 0.6108356 0.5701006 8 12 16
-0.9234718 0.5130425 0.7069274 106 97 98
-0.9557571 0.6608316 0.6837863 65 72 82
-0.9857263 0.7062021 0.8126128 8 8 8
-0.9850301 0.6999121 0.6575052 49 48 57
-0.922712 0.5082483 0.7135407 115 105 106
-0.9898114 0.7182472 0.675841 65 68 74
-0.9974743 0.7494476 0.77878 41 48 49
-0.9647748 0.641087 0.744489 49 60 74
-0.9419564 0.5530882 0.8196054 57 60 65
-0.9904255 0.7183326 0.6808048 57 60 74
-0.9893913 0.7317542 0.7732341 41 48 49
-0.9652807 0.6357877 0.6557522 41 48 57
-0.9267086 0.6965373 0.7847648 24 28 24
-0.9829975 0.7081981 0.7053936 49 52 65
-0.9392883 0.5716945 0.8843769 106 97 98
-0.9812998 0.7005077 0.5891868 32 44 41
-0.9246469 0.5218617 0.6935018 115 109 106
-0.8928898 0.7357482 0.8460609 32 44 41
-0.9931064 0.7264665 0.6255656 0 4 8
-0.07776566 0.8847604 0.1841035 41 44 49
-0.06836134 0.8771079 0.1808142 8 16 16
-0.073456 0.8148067 0.1511787 8 8 8
-0.05657837 0.8714461 0.176356 8 12 16
0.005984126 0.7815096 0.1382154 24 36 32
-0.07501286 0.8810885 0.1801977 8 16 16
-0.05839256 0.8731114 0.1889468 16 28 32
0.01011584 0.7821545 0.1400804 16 28 24
-0.04986574 0.794246 0.15678 24 40 49
0.01591189 0.7793287 0.1405689 8 12 8
-0.2224371 0.5960534 0.1619191 74 101 106
-0.02209258 0.7831968 0.1416298 0 8 0
-0.05370196 0.7973642 0.146779 16 24 24
-0.04875556 0.8655151 0.1777486 24 36 32
-0.07558042 0.8811394 0.1971589 16 28 32
-0.09977345 0.8933339 0.1946738 24 44 49
-0.05975093 0.8734511 0.1854229 24 36 49
0.0168345 0.7808671 0.1462543 16 20 16
-0.09001503 0.8908788 0.1851314 24 32 32
-0.09817146 0.8949394 0.1694022 8 20 16
-0.09485048 0.8933327 0.1842951 16 24 24
0.01611356 0.7764641 0.1327177 8 12 8
-0.08776232 0.8906934 0.1909246 8 12 8
-0.05085924 0.8674971 0.1810066 16 20 24
-0.07710502 0.8839452 0.1874775 8 20 16
-0.1021767 0.8968313 0.1876061 32 40 41
-0.09284238 0.8917498 0.1912033 16 16 16
-0.02291672 0.7907171 0.157525 8 20 16
-0.09087011 0.8918814 0.1823251 32 44 49
-0.09599753 0.8951776 0.1707656 8 12 8
-0.09876483 0.8940857 0.1947626 24 48 49
-0.01765078 0.7799886 0.1384209 8 16 16
0.004872842 0.7847167 0.1417272 8 24 16
-0.0201479 0.7881286 0.1592284 16 32 24
-0.09635087 0.8937806 0.1848636 24 36 32
-0.04469495 0.8618028 0.1753916 16 24 24
0.01131549 0.7819436 0.1415124 8 20 16
-0.09475808 0.894602 0.1759409 16 16 16
-0.04790852 0.860116 0.1682774 16 24 24
0.01383313 0.7794828 0.1389437 16 24 24
0.01621532 0.7828847 0.1511867 8 16 16
-0.04699775 0.792937 0.142445 16 20 16
-0.06107243 0.8725578 0.1915545 24 40 41
-0.09361502 0.8920235 0.1855281 24 36 32
-0.08612707 0.8903015 0.1892542 24 40 32
-1.197558 1.082481 0.4463948 32 44 49
-1.176037 1.067393 0.4147855 24 52 57
-1.263299 1.117662 0.5242468 24 36 32
-1.266302 1.137516 0.5315039 24 36 32
-1.12446 1.072393 0.3440009 98 129 131
-1.26175 1.089707 0.5164655 8 16 16
-1.271643 1.169971 0.5618876 115 133 139
-1.125303 1.050515 0.3514004 24 48 57
-1.186185 1.078505 0.431245 24 36 32
-1.122855 1.08289 0.3325667 24 36 32
-1.261473 1.101135 0.5254172 49 56 57
-1.271219 1.169753 0.5452511 98 109 106
-1.178705 1.026688 0.4200367 32 52 57
-1.256116 1.086446 0.511785 32 72 82
-1.26937 1.135892 0.5248516 49 60 49
-1.236694 1.061456 0.5116215 123 149 148
-1.272969 1.15183 0.5354293 49 60 57
-1.262396 1.09582 0.5226316 49 60 57
-1.188559 1.076597 0.4388695 65 76 82
-1.171188 1.04956 0.4093958 106 121 123
-1.265359 1.134091 0.5292967 49 56 49
-1.268122 1.137282 0.5259957 49 60 57
-1.117363 0.8285075 0.6274818 90 80 90
-1.185337 1.057126 0.4445661 90 101 98
-1.216464 1.053303 0.4884956 106 129 131
-1.14638 1.118772 0.3223398 74 93 90
-1.232442 1.082025 0.490373 98 129 139
-1.264689 1.136991 0.5480925 90 117 123
-1.263285 1.090942 0.511344 90 101 98
-1.134319 1.098873 0.3409653 98 125 123
-1.267493 1.142504 0.5426226 74 89 90
-1.266377 1.141322 0.5404746 90 105 106
-1.254281 1.076233 0.5200658 90 117 123
-1.199302 1.045344 0.4664053 98 105 106
-1.253923 1.080536 0.5156922 98 125 131
-1.266102 1.13594 0.5329008 74 89 82
-1.2658 1.141466 0.5437893 74 93 90
-1.209866 1.047227 0.4803323 74 85 98
-1.194733 1.043615 0.4616569 115 129 123
-1.26651 1.142923 0.5365686 65 89 90
-1.262679 1.128763 0.5390783 82 105 106
-1.151497 1.109648 0.3416159 49 52 49
-1.128253 1.068312 0.3567137 82 105 106
-1.26391 1.134963 0.544803 90 117 123
-1.173827 1.047843 0.4160381 98 121 123
-1.265998 1.096472 0.5170342 24 28 32
-1.26098 1.105527 0.5305976 32 52 57
-1.271711 1.096771 0.510565 16 28 24
-1.228756 1.081318 0.4834723 41 76 98
-1.185415 1.076839 0.4311857 24 40 57
-1.265639 1.112527 0.5204898 8 16 16
-1.262344 1.12569 0.5480769 16 40 41
-1.274205 1.124956 0.5158107 0 8 8
-1.256193 1.081848 0.5145417 41 72 90
-1.21559 1.06464 0.4814538 49 72 90
-1.265878 1.14536 0.5441492 32 56 57
-1.118442 1.075337 0.3225313 16 36 49
-1.220807 1.062987 0.4911135 41 80 98
-1.26681 1.138306 0.5289614 24 36 32
-1.267732 1.13063 0.5241224 16 28 24
-1.242381 1.069528 0.511729 41 76 98
-1.223879 1.073884 0.4842444 32 48 65
-1.273424 1.129804 0.5168788 8 12 8
-1.263503 1.109221 0.5233482 16 24 16
-1.126452 1.032969 0.340937 24 36 41
-1.138696 1.110559 0.3246593 32 40 41
-1.261493 1.088969 0.5250844 32 44 41
-1.262942 1.094241 0.5220549 24 32 32
-1.262752 1.098005 0.5396845 16 40 49
-1.263314 1.126564 0.5346525 32 44 49
-1.262659 1.09866 0.5229071 24 32 32
-1.246296 1.077127 0.5114038 49 89 106
-1.198888 1.081711 0.4498951 32 52 74
-1.261455 1.095453 0.5272743 16 32 41
-1.260068 1.097996 0.529608 32 52 57
-1.181954 1.094175 0.3959004 98 125 131
-1.180624 1.062731 0.4311217 82 109 115
-1.129252 1.069714 0.357678 98 137 148
-1.168137 1.084053 0.3868974 90 129 139
-1.217355 1.074687 0.4765936 106 113 115
-1.120538 1.051197 0.334411 82 113 123
-1.175671 1.058335 0.4214346 106 133 139
-1.125659 1.064819 0.3506467 74 80 90
-1.189366 1.078651 0.4385764 106 129 131
-1.126216 1.070499 0.3492205 74 76 82
-1.191411 1.075743 0.4431098 82 85 90
-1.183945 1.090276 0.4080302 90 121 123
-1.166158 1.068582 0.3930179 90 117 123
-1.192284 1.078277 0.443741 74 85 98
-1.175127 1.04103 0.4201331 98 129 139
-1.171986 1.064356 0.4041373 90 129 131
-1.131739 1.086329 0.3494894 74 113 115
-1.143787 1.061847 0.3708613 90 129 139
-1.168811 1.131026 0.3399302 65 72 74
-1.186304 1.044465 0.4489639 98 109 115
-1.206745 1.104119 0.4225582 90 109 106
-1.171192 1.061632 0.4046863 98 137 148
-1.123722 1.043541 0.3405557 82 105 106
-1.119477 1.055934 0.3321482 32 48 49
-1.175333 1.062894 0.4169963 82 113 115
-1.193082 1.101968 0.400783 65 80 90
-1.167838 1.135962 0.3324591 106 137 139
-1.234447 1.09137 0.4747466 98 117 115
-1.145063 1.116059 0.3251334 98 121 123
-1.124486 1.038857 0.3394359 57 72 74
-1.123922 1.042416 0.3389782 57 80 82
-1.204718 1.087803 0.4500586 106 125 123
-1.126637 1.064142 0.3537752 90 129 131
-1.18034 1.076507 0.4173366 98 133 139
-1.119286 1.0534 0.3318504 74 93 90
-1.194946 1.100003 0.4113417 65 89 98
-1.134713 1.089801 0.3530775 82 117 123
-1.146112 1.111086 0.3555889 82 121 131
-1.150689 1.121763 0.3255545 65 72 74
-1.122041 1.06171 0.3341082 74 80 82
-1.162098 1.132329 0.3259359 32 44 41
-1.253548 1.098688 0.4792772 32 40 49
-1.187823 1.077881 0.4362146 16 32 32
-1.201021 1.064777 0.4655828 32 40 49
-1.203443 1.096701 0.4368503 24 44 49
-1.19036 1.084501 0.4343227 32 48 49
-1.185434 1.092033 0.4090772 32 40 41
-1.132792 1.088051 0.3516023 32 48 49
-1.196756 1.079713 0.4492652 24 36 41
-1.145446 1.093776 0.3641386 8 20 24
-1.263345 1.092984 0.5201474 24 28 24
-1.2677 1.114068 0.5176497 16 20 16
-1.19355 1.093926 0.4243174 16 24 24
-1.173794 1.053387 0.4171906 41 44 49
-1.269445 1.117022 0.5168834 8 12 8
-1.121353 1.08321 0.3251218 90 125 123
-1.120576 1.056967 0.3350689 49 72 74
-1.173162 1.039854 0.4143548 98 129 131
-1.175471 1.062573 0.4185252 98 133 131
-1.120538 1.092157 0.3211113 74 105 115
-1.119575 1.07522 0.3284576 90 121 123
-1.12533 1.067878 0.3486615 90 117 123
-1.18062 1.106824 0.3766254 90 117 123
-1.158081 1.128662 0.3248941 74 93 90
-1.132563 1.104357 0.3190025 57 72 74
-1.190392 1.09379 0.4169282 82 105 106
-1.184684 1.082555 0.4214577 98 133 139
-1.176451 1.065235 0.4180889 90 125 123
-1.122689 1.080378 0.3349334 98 133 139
-1.203793 1.077127 0.4605351 98 121 131
-1.126377 1.025359 0.3256697 74 101 106
-1.053745 0.891974 0.3288243 41 40 41
-1.141928 1.100599 0.3523912 57 97 106
-1.144487 1.099042 0.3574669 90 125 131
-1.155041 1.122364 0.3296086 90 101 98
-1.198327 1.101792 0.4114911 82 97 106
-1.208409 1.069264 0.4717089 106 121 131
-1.196728 0.9810109 0.388426 65 101 115
-1.171654 1.016517 0.4010858 65 89 98
-1.154301 1.124716 0.3250982 65 93 98
-1.17231 1.070797 0.4003547 98 133 139
-1.128835 1.076109 0.3525797 74 113 123
-1.18029 1.067769 0.4262382 98 141 148
-1.124773 1.098893 0.3231196 82 109 106
-1.193343 1.094076 0.4243983 24 32 32
-1.174889 1.057026 0.4213064 41 48 49
-1.179777 1.089379 0.3986708 32 56 57
-1.283264 1.19502 0.5705692 24 48 57
-1.272877 1.153188 0.5345696 24 28 32
-1.278737 1.182202 0.5603349 32 48 49
-1.275807 1.132353 0.5161452 16 20 16
-1.267048 1.148059 0.5509566 32 56 65
-1.279801 1.187359 0.5734095 32 44 49
-1.269566 1.134321 0.52277 16 28 24
-1.273201 1.097523 0.50894 0 12 8
-1.277227 1.180175 0.5744049 41 60 65
-1.263107 1.078975 0.5443202 32 52 65
-1.184686 1.148767 0.3268484 24 32 32
-1.127047 1.06689 0.3546025 32 60 65
-1.219899 0.7885219 0.5016157 16 20 24
-1.239137 1.072329 0.5059904 41 72 90
-1.198063 1.080939 0.4486602 41 72 90
-1.157325 1.128932 0.3249781 24 32 32
-1.280993 1.192289 0.5775633 41 56 57
-1.195519 1.06063 0.4601011 32 40 57
-1.267377 1.145972 0.5487508 32 52 57
-1.188996 1.068695 0.4441381 16 28 49
-1.205027 1.080379 0.4603912 32 56 82
-1.280041 1.161179 0.5331222 24 28 24
-1.273616 1.169456 0.5529321 32 52 57
-1.264078 1.124792 0.5291455 32 44 41
-1.27878 1.187197 0.580611 41 68 82
-1.272751 1.162574 0.5467422 24 36 41
-1.282469 1.194793 0.575461 16 28 24
-1.214732 1.061419 0.4816255 24 40 57
-1.272413 1.166145 0.5566241 32 56 65
-1.25885 1.083317 0.5234198 41 64 74
-1.230616 1.088352 0.4766675 32 52 65
-1.168182 1.129695 0.3403352 16 28 24
-1.280676 1.171243 0.5409846 8 12 8
-1.272444 1.163731 0.5577368 32 60 65
-1.287476 1.203993 0.5745788 24 32 41
-1.151724 1.067883 0.3782431 41 76 90
-1.201136 1.060635 0.4680255 32 56 74
-1.282466 1.193886 0.5729603 16 28 24
-1.285813 1.203234 0.5776395 24 40 49
-1.277426 1.179315 0.5546436 16 28 32
-1.219695 1.064926 0.4858004 49 80 98
-1.279088 1.184407 0.56594 24 40 41
-1.129717 1.081964 0.3500758 32 68 74
-1.128055 1.093995 0.3325312 24 32 32
-1.281766 1.191345 0.5731223 32 52 57
-1.181615 1.092349 0.3987544 98 145 148
-1.122235 1.085955 0.3255687 90 125 123
-1.1538 1.116685 0.3488566 24 32 32
-1.190525 1.091228 0.4234232 82 97 98
-1.128377 1.071999 0.3528666 98 133 139
-1.169281 1.053068 0.4033363 115 149 156
-1.128303 1.088737 0.3399723 98 137 148
-1.122946 1.088936 0.3256792 65 105 106
-1.13053 1.089183 0.34393 16 28 32
-1.226417 1.085452 0.4762315 49 80 82
-3.335746 0.2349737 0.9744152 115 93 106
-1.145809 1.071215 0.3718088 115 161 180
-1.194058 1.078013 0.445851 90 97 106
-1.193095 1.097267 0.4133145 65 80 82
-1.13469 1.097846 0.3427584 82 121 131
-1.178595 1.042318 0.4329833 90 113 123
-1.170768 1.048351 0.4083728 74 109 115
-1.184413 1.10671 0.3815887 115 141 148
-1.173379 1.087294 0.3910662 90 125 131
-1.17504 1.131848 0.3461945 41 44 41
-1.167027 1.043626 0.4003711 106 145 148
-1.172169 1.043046 0.4145524 98 129 131
-1.184129 1.060657 0.4408917 82 113 115
-1.195984 1.084677 0.4421256 90 121 123
-1.199851 1.096842 0.4317151 90 121 123
-1.189679 1.063388 0.4493809 82 105 106
-1.175784 1.135003 0.3395057 57 68 57
-1.189589 1.082265 0.434155 90 113 123
-1.126049 1.114388 0.2684073 82 101 98
-0.8313171 1.064197 0.08297813 57 44 41
-0.96342 0.7685959 0.2900335 65 64 74
-1.143744 1.155198 0.2178166 32 44 49
-1.143332 1.1557 0.2500619 49 76 74
-0.1949719 0.9265984 0.3425169 8 12 16
-0.1946909 0.9301749 0.4043054 16 24 32
-1.004197 0.8687651 0.3246659 41 36 41
-0.9774598 0.6902295 0.6279396 0 4 0
-0.9691541 0.6844613 0.5678365 8 16 8
-1.121677 1.087107 0.2920489 57 80 74
-1.118812 1.039599 0.3138057 74 105 106
-1.122422 1.092675 0.3211179 24 36 41
-1.13102 1.103027 0.2980732 8 8 8
-1.143313 1.10032 0.2296078 32 44 41
-0.9320457 0.6558581 0.2923956 41 36 32
-0.9837246 0.713159 0.5901501 16 20 24
-0.9878108 0.7146148 0.5959657 0 0 0
-1.12872 1.10143 0.2532752 24 32 32
-1.181474 1.068046 0.4286932 106 137 139
-1.160228 1.132464 0.3217989 24 28 32
-1.155888 1.119398 0.3329404 16 20 16
-1.146257 1.125252 0.3091087 16 28 24
-1.141505 1.147849 0.2641933 16 24 24
-1.267751 1.142011 0.5336897 16 24 24
-1.188879 1.08268 0.436644 32 48 49
-1.130125 1.031536 0.211148 24 28 32
-1.14149 1.116702 0.229304 41 60 65
-1.08161 0.8387169 0.7180931 41 52 57
-1.069586 0.8343961 0.7168162 24 28 32
-1.139297 1.119031 0.2984836 74 93 90
-1.13504 1.128113 0.2710929 16 32 32
-0.9480721 0.5685974 0.6505165 57 68 74
-0.999718 0.7333734 0.6016062 57 56 65
-1.144255 1.14433 0.2792253 65 76 82
-1.268656 1.104332 0.515532 41 48 49
-0.9657995 0.6460619 0.5662342 0 4 8
-0.1926817 0.9315473 0.4159015 41 52 57
-1.158598 1.159489 0.277438 24 40 41
-1.105684 1.01915 0.2343917 16 20 16
-0.9348254 0.6655008 0.3135245 16 20 16
-1.166507 1.024763 0.3986662 24 28 32
-0.9463851 0.6922769 0.3251684 41 48 49
-1.137328 1.128965 0.2250249 32 52 57
-1.13984 1.117088 0.2289234 49 60 65
-1.113354 1.06239 0.2661398 16 16 16
-0.7378042 0.9685415 0.004274033 49 36 41
-0.9452634 1.119578 -0.1067797 82 80 82
-1.133708 1.112487 0.2683715 98 113 115
-0.9862863 0.7110712 0.5840005 49 52 57
-0.7356004 0.9630099 -0.1096551 32 28 32
-0.7432092 0.9763706 0.06493103 24 20 16
-0.7809376 1.012844 -0.1036078 24 12 16
-0.1524685 0.8995542 0.177451 8 12 16
-0.9883602 0.7178887 0.6979508 57 60 65
-0.7465054 0.9767565 -0.09770976 24 12 16
-0.7447352 0.9809643 -0.1215501 8 8 8
-0.07707667 1.104041 0.05584918 74 56 57
-0.7907407 1.030943 -0.08811227 32 24 32
-0.860673 1.07983 -0.1253053 16 16 16
-0.8268192 1.062832 0.06694064 41 28 24
-0.9004276 1.108116 -0.08493724 32 24 24
-0.9553625 1.12442 -0.09571712 49 44 49
-1.144868 1.169861 0.2197709 41 44 49
-0.9612888 0.6434614 0.6318112 24 32 41
-0.827543 1.06251 0.07090461 16 12 8
-1.117417 1.065078 0.3206026 32 36 41
-0.9784866 0.8040286 0.2823617 32 24 24
-1.163679 1.12856 0.3302279 24 36 41
-1.125631 1.085922 0.2494323 16 16 24
-0.9519163 0.5923552 0.7377096 49 48 57
-0.9401143 1.118907 -0.1062763 16 16 16
-0.9594722 0.6191326 0.6332439 8 8 16
-0.7699773 1.013886 -0.07679617 16 16 8
-1.114726 1.063976 0.311251 65 97 98
-0.7971691 1.028812 -0.09876779 8 12 8
-0.7462114 0.981398 -0.1293402 8 12 8
-0.9521373 0.5947457 0.649735 24 36 41
-0.7564043 0.993384 -0.1179144 0 4 0
-0.9884264 0.7130378 0.6636909 16 24 24
-0.8129923 1.041475 -0.1086915 8 8 8
-0.7904965 1.01998 -0.1109902 8 8 8
-0.7456591 0.9766988 -0.07823053 8 4 0
-0.7306881 0.9576861 -0.03925688 24 20 16
-0.7663788 0.9899425 -0.09119623 0 0 0
-0.7477573 0.978328 -0.02705667 32 28 24
-0.7631061 0.9990321 -0.117991 0 0 0
-0.7396753 0.9696129 -0.05876546 24 16 16
-0.9866127 0.7125598 0.740169 32 36 41
-1.130201 1.033193 0.2205591 8 16 16
-0.9566422 0.7353984 0.2938886 41 40 41
-1.137349 1.106313 0.3262497 16 24 24
-0.9681851 0.7741023 0.2820681 24 24 24
-0.1942239 0.929832 0.4092661 16 28 24
-0.7325841 0.9613343 0.03491193 16 16 8
-0.8308722 1.069164 -0.08852547 16 20 16
-0.7228884 0.9468847 -0.07750009 0 0 0
-0.7470308 0.9781762 -0.1149959 16 24 24
-0.8798987 1.100252 -0.07120243 8 8 0
-0.7367094 0.964156 -0.03106581 16 12 8
-0.8348736 1.064354 -0.1205314 8 12 8
-0.736604 0.9688422 -0.1177761 0 4 0
-0.9768764 0.7985306 0.280506 41 32 32
-0.7453884 0.9743014 0.002672863 16 12 8
-1.259178 1.126551 0.539677 148 170 164
-1.268973 1.148529 0.5371576 49 64 65
-1.13985 1.1319 0.2089496 16 20 24
-1.194599 1.060754 0.4596848 41 44 49
-0.06859294 1.080858 0.08811875 65 52 49
-1.139942 1.126316 0.225819 41 60 65
-1.122549 1.089811 0.2813374 16 24 24
-1.12057 1.081573 0.3228584 41 52 57
-1.115309 1.054228 0.3206991 16 24 24
-1.116237 1.049596 0.3185029 41 44 57
-0.950692 0.589919 0.7443639 0 0 0
-0.8226504 1.048388 -0.1063926 32 28 41
-0.9627705 0.7517835 0.2829998 65 56 57
-0.7357646 0.9651033 -0.04414313 41 36 41
-0.9818836 0.7983018 0.293265 65 52 57
-1.101528 1.235329 -0.06455638 82 105 115
-0.7475817 0.9751152 -0.04411533 32 20 24
-0.8165269 1.053957 -0.08135734 24 20 16
-0.9879584 0.7247533 0.5719608 32 36 41
-0.8298688 1.061629 -0.07307675 32 20 16
-1.151535 1.182001 0.2193081 74 80 90
-1.128179 1.065367 0.3547717 139 170 172
-1.272712 1.172473 0.5521536 139 157 164
-0.8197728 1.331074 -0.1554387 41 36 41
-0.7245463 0.9538601 0.09271869 41 24 24
-1.274044 1.178942 0.5586295 131 149 156
-0.7519062 0.9862953 -0.1283776 24 24 24
-0.9333647 0.6539141 0.2846384 32 32 41
-0.1561174 0.8914456 0.154244 8 12 8
-1.140287 1.164487 0.2219031 24 36 32
-1.1356 1.126912 0.2402614 16 24 24
-1.167361 1.21172 0.1177712 32 40 41
-1.126986 1.107415 0.2762222 65 80 82
-1.178479 1.226788 0.1354277 32 36 41
-1.14256 1.136746 0.1997477 16 24 24
-1.164021 1.196538 0.1483664 41 48 49
-1.138915 1.142717 0.2159898 16 24 24
-1.164576 1.197154 0.1383578 8 12 8
-1.157393 1.200679 0.2071415 16 28 24
-0.7396505 0.9695904 0.07168104 8 8 0
-0.7534102 0.991219 -0.1288673 8 8 8
-0.8872489 1.092717 -0.1097032 16 20 24
-0.7334064 0.9606575 0.07395373 16 8 8
-0.8578683 1.076684 -0.1002631 16 20 16
-0.7436315 0.9712133 -0.111265 0 4 0
-0.982999 0.701905 0.5707248 24 28 32
-1.151466 1.174589 0.1988101 8 8 8
-0.9404895 0.5372345 0.6959068 32 36 41
-1.137284 1.139304 0.2240019 32 44 49
-0.9932445 0.7373389 0.7127259 57 60 57
-0.9998562 0.7351165 0.6339455 8 8 8
-0.7528284 0.978774 -0.07375556 16 12 8
-0.7982036 1.032741 0.1039827 32 28 24
-0.7708993 1.009894 -0.06681255 8 4 0
-0.09717315 0.8936269 0.1894173 24 40 41
-0.9602718 0.6148251 0.6284807 24 36 41
-0.07412624 1.100136 0.09186061 74 56 57
-0.9260431 0.643924 0.288923 98 89 98
-1.262205 1.13997 0.5394444 139 165 164
-0.9488553 0.596638 0.7480854 65 68 82
-0.9552389 0.7305509 0.3158163 24 28 24
-0.4363116 0.8541941 0.3392042 90 133 139
-0.8073711 1.045915 0.06984404 41 28 24
-0.9456413 1.006681 0.1956092 32 24 24
-1.149828 1.117898 0.3243303 24 44 49
-0.9127063 0.9847779 0.1710026 32 32 41
-1.132671 1.062671 0.2474745 16 20 24
-1.1253 1.065184 0.1728442 0 12 8
-0.1988531 0.9342022 0.3802257 49 64 65
-0.0509952 0.8652276 0.1957049 41 60 65
-0.08059999 0.8786059 0.1619473 8 12 8
-0.06740095 0.8752916 0.189901 32 56 57
-0.1739019 0.9258851 0.2671297 24 28 32
-1.145002 1.104255 0.226472 16 12 16
-0.9604738 0.6310067 0.7330939 8 12 24
-0.9217611 0.6381665 0.300897 74 64 74
-0.7282423 0.9602419 0.032183 24 20 16
-0.9735729 0.6735107 0.7782767 32 36 49
-0.8309329 1.052909 -0.1074657 32 32 32
-0.8623938 1.079592 -0.1247265 16 20 16
-0.7370433 0.9726419 0.1096151 49 36 32
-0.748049 0.9859592 -0.121003 16 16 24
-0.8228028 1.050604 -0.123345 49 44 49
-0.954587 0.6021841 0.7745289 57 56 65
-0.9952851 1.125242 -0.1048137 32 36 41
-0.2125207 0.9452885 0.4133121 74 80 90
-0.07767656 1.099135 -0.06234583 57 40 32
-0.9436014 0.5699363 0.6337891 65 68 74
-1.148197 1.153881 0.2633056 123 141 139
-0.9459222 0.5867503 0.7513234 74 76 82
-0.8384364 1.061058 -0.1288393 32 32 24
-0.9834676 0.7149637 0.619553 57 60 74
-0.7421401 0.9723461 -0.09342244 41 28 32
-0.9860181 0.7090034 0.5992321 24 28 32
-1.132204 1.109146 0.2634736 24 32 32
-0.1988706 0.9317971 0.3331356 24 36 41
-1.115443 1.086515 0.3099662 8 16 16
-1.145118 1.158311 0.246142 74 113 115
-1.128534 1.032215 0.2097672 8 8 8
-0.7800614 1.023449 -0.08612081 16 12 8
-0.7677758 1.012141 -0.07424989 8 8 0
-0.854248 1.076622 -0.1380569 41 48 49
-0.8413953 1.066327 -0.1074369 16 16 16
-0.837309 1.062575 -0.1125259 8 12 8
-0.9626355 0.7455452 0.3177418 49 48 49
-0.8053961 1.04742 0.05789096 32 28 16
-0.736337 0.9670318 -0.06495629 16 16 16
-0.9788954 0.6947334 0.5989164 24 32 32
-0.9839142 0.7015409 0.6784505 8 16 16
-1.116906 1.076444 0.2742935 16 28 24
-0.210557 0.9474861 0.4002525 24 24 24
-1.134951 1.130168 0.2597164 32 40 41
-0.955432 0.7446476 0.2328031 24 24 32
-0.9850071 0.6971923 0.669863 24 28 41
-0.0578343 0.7994882 0.1524838 49 76 82
-0.0295538 0.9348403 -0.0546263 41 36 32
0.02281276 0.7647633 -0.008738554 41 36 24
-0.9583726 0.7251356 0.25173 41 32 32
-0.9590244 0.7420931 0.2431931 41 36 41
-0.0702277 0.8017815 0.1460893 16 20 16
-0.03525802 0.9564864 -0.05404792 32 24 24
-0.09787567 0.8938544 0.1689404 24 40 32
-0.9687905 0.775019 0.3045742 41 44 49
-0.761087 1.004885 0.07389331 24 16 8
-0.7259836 0.9612467 -0.06565481 0 4 0
-0.9878131 0.7080815 0.7839996 8 12 8
-0.9445126 0.5536066 0.8153879 65 72 82
0.5389296 1.512118 0.04298613 24 28 32
0.4231233 1.480511 0.08211707 8 8 8
0.4312901 1.486298 0.07551759 8 8 8
-0.9122051 0.736308 0.9309492 24 36 49
-0.8924157 0.7222511 0.8633376 0 4 0
-0.9463488 0.7385504 0.8859223 90 101 106
-0.1629315 0.9034733 0.5499648 0 8 8
-0.91518 0.7339017 0.94267 24 32 32
-0.9780503 0.7226549 1.136348 0 4 0
-0.2216824 0.8730043 0.8510291 189 206 238
-0.2084838 0.9409966 0.403868 57 68 82
-0.8927498 0.7360176 0.8463687 65 76 82
-0.2104675 0.9511737 0.6017727 32 44 49
-0.1996032 0.9246804 0.3636672 8 12 16
-0.2107754 0.949401 0.5979418 24 28 32
-1.067754 0.8340117 0.9162305 8 12 16
-0.2558115 0.9493155 0.5265527 24 28 41
-1.0627 0.8315939 0.7082474 82 80 82
-0.8967844 0.7351034 0.8652815 8 12 16
-0.3380074 0.9581223 0.6134884 57 60 65
-0.9588991 0.6014392 0.634971 8 16 16
-1.123904 1.09401 0.282938 49 56 57
-1.039674 0.6505482 1.627909 32 48 57
-1.045409 0.6584627 1.547069 32 56 57
-0.992612 0.7277694 0.7252622 32 32 41
-0.1953125 0.9393853 0.6315913 32 40 41
-0.1890994 0.9277285 0.5441563 16 20 24
-0.2177386 0.8644719 0.8170184 115 117 115
-1.010255 0.8068117 0.9546583 49 40 49
-1.03941 0.6480742 1.598586 32 44 49
-0.03318432 0.7887871 0.1429618 8 8 8
-0.2064328 0.9418801 0.6413991 16 16 16
-0.1707743 0.9036582 0.5572425 32 40 41
-0.1847503 0.9220548 0.5475609 0 8 0
-0.9987211 0.8674505 0.3249144 8 12 8
-0.05034608 0.8661441 0.1754029 8 12 16
-0.8769754 0.7133758 0.8900577 0 4 0
-0.2369609 0.9118894 0.7953942 8 12 8
-0.9393628 0.5476455 0.857321 65 72 82
-1.041299 0.7447314 1.168305 8 12 8
-0.9442831 0.576306 0.8907417 24 24 24
-0.2350133 0.9175141 0.8056477 32 36 41
-0.1904321 0.9339612 0.5902613 16 24 24
-0.9337767 0.7369163 0.9706704 24 28 32
-1.025633 0.8121601 0.7227693 16 16 16
-0.9431903 0.6824176 0.305575 16 20 16
-0.1711369 0.9037367 0.5560672 32 36 41
-0.9511911 0.7420008 0.9280118 8 8 8
-0.4998761 0.8511043 0.3217973 16 32 32
-0.959762 0.6673841 0.6514143 16 24 24
-0.9781138 0.8579783 0.3410479 32 32 32
-0.009841439 0.7741531 0.1292668 24 32 32
-0.9812197 0.7995057 0.2075198 8 12 8
-0.435337 0.8577611 0.3194811 57 89 98
-0.02173971 0.7892303 0.1572316 16 16 16
-1.232299 1.08471 0.4830136 106 125 123
-1.118922 1.063999 0.3209624 90 129 131
-1.111369 1.079292 0.3026729 32 44 49
-0.07191984 0.8788249 0.1930578 32 52 49
-0.06529829 1.050823 0.1122922 24 32 32
-0.04032135 0.7932295 0.1534575 8 12 8
-0.1692465 0.9534606 0.1827279 24 28 32
-0.8959687 0.7204744 0.8724128 49 68 65
-0.9335823 0.6235447 0.5442438 24 32 32
-0.9614187 0.660864 0.6010001 32 36 41
-0.8693669 0.7021812 0.8963526 8 16 16
-0.9674606 0.6630942 0.6390957 0 0 0
-0.9958866 0.7294344 0.5907875 8 16 8
-0.8201672 0.1529713 0.6435385 0 4 0
-0.8466125 0.158087 0.7092357 8 16 16
-0.1566937 0.8874967 0.5242957 0 4 8
-0.8270938 0.160725 0.6827981 24 44 49
-0.865049 0.171957 0.6757603 16 24 24
-0.9162698 0.5171402 0.4271075 8 12 8
-0.3702553 0.8731483 0.2293147 0 8 8
-0.8359494 0.1546878 0.6237451 0 8 0
-0.5156732 0.8500317 0.346231 8 8 8
-0.9386264 0.5461349 0.8675472 16 16 16
-0.9503597 0.7401661 0.8965517 0 4 0
-0.8981948 0.7177851 0.8047518 8 16 16
-1.144658 0.8321247 0.8291497 32 28 32
-0.3781479 0.8737865 0.2364562 0 4 0
-0.3329407 1.054578 0.1136423 0 8 8
-0.9685879 0.6690534 0.5668445 8 16 8
-0.8225226 0.1588134 0.6527881 16 24 24
-0.87345 0.1677887 0.6440945 0 8 8
-0.3920438 0.8713273 0.2203092 0 4 0
-1.247983 1.114789 0.4209324 24 28 32
-1.212682 1.094932 0.4502342 24 32 32
-1.149961 1.123225 0.320854 16 24 24
-1.181856 1.100827 0.387623 24 36 41
-1.234807 1.114133 0.4217809 24 48 57
-1.154347 1.148872 0.2885631 24 36 41
-1.174208 1.225088 0.1866062 24 40 41
-1.130605 1.133876 0.2536065 8 12 8
-1.170656 1.161156 0.1512809 8 12 8
-1.131241 1.079364 0.1623377 8 12 8
-0.8627449 0.1701704 0.651573 8 12 8
-0.919981 0.7384666 0.8911958 16 28 24
-0.4277478 0.8614733 0.2771516 24 36 32
-0.9628552 0.635135 0.7693104 8 12 8
-0.9449072 0.569589 0.557156 8 16 16
-0.8557058 0.1725615 0.6522275 16 20 24
-1.082196 0.8362484 0.7192725 8 12 16
-0.9584014 0.6015215 0.7395581 0 4 0
-0.3854767 0.8747692 0.2316432 8 12 8
-1.224156 1.114639 0.3840831 16 24 24
-1.185922 1.082309 0.4260993 32 60 74
-1.195987 1.097697 0.4190111 24 28 24
-1.20811 1.099989 0.4377969 16 24 24
-1.156271 1.120678 0.3536205 24 40 41
-1.17446 0.8334766 0.8327727 32 40 41
-1.045199 0.8176323 0.5261894 8 12 8
-1.148373 0.8383864 0.9546801 16 20 24
-1.226162 1.079131 0.4828847 32 48 57
-1.045971 0.7319056 1.192804 16 24 16
-0.8302439 0.1477159 0.7180151 24 40 41
-0.8738924 0.1681138 0.6953533 16 24 24
-0.4153453 0.8729082 0.2454686 16 32 32
-0.1487013 1.104426 0.1137725 24 32 32
-1.173019 1.092217 0.3915735 41 68 74
-0.9367386 0.7403205 0.9951779 8 16 16
-1.006321 0.8469885 1.01416 16 20 16
-1.020613 0.815957 0.670684 8 12 8
-0.8545303 0.139992 0.5980104 8 16 16
-0.4403529 0.86189 0.3132735 16 20 24
-1.107986 0.8341146 0.9097869 16 24 24
-0.3284397 0.9489246 0.6508329 24 36 32
-1.029308 0.9098004 0.2663422 0 8 0
-0.4788897 0.7840763 0.4360694 230 242 246
-1.019522 0.809832 0.908576 24 24 24
-0.8586169 0.1652083 0.6452087 24 24 24
-0.9627761 0.7444863 0.8608223 0 0 0
-1.069435 0.8360629 0.6693476 8 8 8
-0.9400151 0.7408502 0.969243 8 8 8
-1.046983 0.8255112 0.9202563 0 4 0
-0.9396287 0.5521115 0.5567122 16 16 16
-0.5028605 0.8483732 0.3534666 8 24 24
-0.3845065 0.8706943 0.2525893 24 40 41
-0.8249874 0.1450246 0.6223671 8 16 16
-0.5127923 0.8527149 0.3374535 16 32 32
-0.5347443 0.855489 0.2981327 16 20 16
-0.800918 0.1319814 0.6526816 24 32 32
-0.2765526 0.9578306 0.1853882 0 8 8
-1.136968 0.8381715 0.7789568 8 12 8
-0.5198262 0.8519678 0.2738012 0 4 0
-0.3786961 1.046316 0.05970092 0 4 0
-1.010863 0.7244636 1.203208 24 28 41
-0.9586278 0.7475929 0.8871788 8 20 16
-0.8370124 0.1678522 0.673985 8 20 24
-0.9998069 0.7592331 0.4631763 24 28 32
-0.5323105 0.8487909 0.3678614 16 20 16
-0.8089333 0.1417459 0.6349834 8 8 8
-1.064993 0.8298396 0.5695168 16 16 16
-1.044542 0.7400869 1.166644 8 12 8
-1.150922 0.8652181 0.9935206 8 12 8
-2.418146 0.144668 1.709446 255 246 255
-1.178563 1.061514 0.4018467 41 72 82
-1.018795 0.8196002 0.4340159 16 24 32
-0.9662844 0.7897488 0.3422768 16 20 16
-0.5084805 0.8525637 0.272736 0 8 8
-1.428884 -5.248984 4.123078 180 202 230
-1.908365 -5.512262 3.559113 90 93 98
-1.458859 -5.176194 4.037019 139 141 156
-1.392645 -5.213999 4.1212 197 210 246
-0.150756 0.8952867 0.2205979 8 8 24
-0.4967232 0.8487293 0.317878 0 8 8
-0.4478627 0.8608187 0.3145994 16 28 24
-0.9091579 0.6126414 0.2061325 16 20 16
-1.01247 0.8118807 0.9152614 16 16 16
-0.9908204 -5.396538 4.123631 156 170 197
-0.9677553 0.68528 0.6495587 8 12 16
-0.9918567 0.7245058 0.5799616 8 12 8
-1.123466 0.8242194 0.7665032 16 16 16
-1.019197 0.8023703 0.5881596 8 8 8
-1.041957 0.8097128 0.7119468 8 8 8
-0.9077108 0.1672749 0.6556456 8 12 8
-0.8566137 0.1707865 0.6414883 16 24 24
-0.5552765 0.8410611 0.3507527 32 48 49
-0.9584765 0.6153025 0.7269297 8 12 8
-0.9941561 0.736748 0.5798115 0 4 0
-0.9851829 0.7119722 0.5838297 8 8 8
-1.201039 1.081189 0.4546795 32 40 41
-1.187188 1.135781 0.3404043 8 12 8
-1.142822 1.116699 0.3209178 8 16 16
-1.132747 1.102686 0.3208277 8 12 8
-1.154135 1.135793 0.308075 16 32 32
-1.159173 1.122049 0.3531517 24 32 41
-1.233627 1.117079 0.4009115 24 36 41
-1.189131 1.054186 0.4547486 24 36 32
-1.240877 1.117129 0.4083537 32 44 49
-1.17868 1.075174 0.4144284 24 36 41
-1.206441 1.097832 0.4372987 24 36 41
-1.225777 1.106513 0.4455096 24 36 41
-1.200698 1.063643 0.4685812 49 64 65
-1.17454 1.057552 0.418087 32 44 49
-1.140264 1.117878 0.310864 8 16 16
-1.190435 1.061181 0.451967 32 40 41
-1.193159 1.100288 0.4121043 32 52 49
-1.205152 1.075047 0.4663766 41 64 74
-1.175487 1.075514 0.4091482 49 68 74
-1.170356 1.081188 0.3936092 41 72 82
-1.161441 1.120881 0.3386232 8 16 16
-1.163763 1.144047 0.3088137 32 40 41
-1.169677 1.140286 0.3237765 16 40 41
-1.208383 1.10139 0.4317773 41 56 57
-1.263657 1.100969 0.5358886 24 36 41
-1.215017 1.11149 0.4075143 24 40 41
-1.254973 1.082433 0.5169647 24 36 41
-1.191892 1.066258 0.4526219 24 32 41
-1.257936 1.086246 0.5132133 32 44 49
-1.1457 1.140322 0.2882767 24 32 41
-1.145199 1.098302 0.3608506 32 48 57
-1.14298 1.141078 0.2825248 16 24 24
-1.128695 1.099431 0.3024832 16 20 16
-1.133511 1.126425 0.2605547 16 20 16
-1.128393 1.104357 0.2892352 8 16 16
-1.183259 1.191099 0.2469717 24 28 32
-1.204996 1.100703 0.4294771 16 28 24
-1.149697 1.154398 0.2732476 16 32 32
-1.145031 1.129403 0.3055037 24 40 41
-1.128664 1.099852 0.2970304 16 20 24
-1.121696 1.086903 0.3236325 8 24 24
-1.137289 1.140989 0.2545579 16 32 32
-1.242221 1.114706 0.4313204 32 48 57
-1.168613 1.145198 0.3102252 16 28 32
-1.132213 1.113309 0.2543975 16 16 16
-1.136021 1.137153 0.2615825 16 24 24
-1.155152 1.162531 0.2679733 24 36 41
-1.168087 1.063367 0.3989432 49 76 82
-1.194694 1.075696 0.447212 32 40 41
-1.200751 1.058822 0.4673749 49 52 57
-1.144741 1.15269 0.2661709 16 24 24
-1.14096 1.134999 0.2847126 8 16 16
-1.141604 1.133711 0.2887497 24 32 32
-1.10775 1.051729 0.2582485 0 4 0
-1.139688 1.118153 0.2984908 24 28 24
-1.018591 0.8100052 0.5215288 24 24 24
-1.190408 1.089137 0.4254394 24 32 32
-1.138612 1.083679 0.3646701 16 36 41
-1.160386 1.151465 0.293442 16 36 41
-1.207876 1.087593 0.4560983 24 44 49
-1.038666 0.890148 0.3276802 16 16 16
-1.262267 1.128945 0.5388008 32 40 41
-1.136945 1.121586 0.238302 8 12 16
-1.254722 1.082627 0.5141042 32 52 65
-1.152309 1.15103 0.2830703 32 40 49
-0.9788615 0.8532735 0.3293804 16 16 16
-1.14403 1.139787 0.2856272 8 16 16
-1.249604 1.094967 0.4897818 32 48 57
-1.161624 1.165039 0.2761494 24 44 41
-1.171569 1.047133 0.4098014 41 52 57
-1.034508 0.8162532 0.5029256 16 16 16
-1.197007 1.088973 0.4414514 49 60 57
-1.175502 1.108052 0.3762057 41 56 57
-1.013076 0.804419 0.577548 32 36 41
-1.203489 1.067807 0.4676334 49 64 65
-1.052223 0.8253219 0.5987443 16 20 16
-1.032062 0.8154536 0.4684043 0 0 0
-1.154375 1.186761 0.2383388 24 28 32
-1.188359 1.081659 0.4357776 32 52 57
-1.245334 1.117403 0.4048334 24 48 49
-1.119125 1.070874 0.3310511 32 40 41
-1.132524 1.088159 0.3519061 32 56 57
-1.223512 1.107506 0.4333209 24 36 32
-1.219803 1.104887 0.4365773 16 28 24
-1.251777 1.078436 0.515911 24 44 49
-1.144523 1.123883 0.3122106 24 40 41
-1.273252 1.152883 0.5356296 24 28 24
-1.248394 1.094355 0.4878035 24 48 57
-1.204238 1.101115 0.4292786 24 40 41
-0.995403 1.024876 0.1742935 16 20 16
-1.157599 1.144755 0.2947979 24 36 41
-1.148217 1.107844 0.346938 0 0 0
-1.116903 1.077396 0.2795136 16 20 16
-1.129937 1.077528 0.160803 8 12 8
-1.139657 1.141694 0.2033797 8 12 16
-1.155755 1.175991 0.2308646 16 20 16
-1.160554 1.132523 0.3203055 16 32 24
-1.185136 1.230708 0.126676 16 32 32
-1.133872 1.084381 0.1496009 8 12 8
-1.156272 1.167232 0.1587396 8 12 8
-1.273764 1.114268 0.40813 24 36 32
-0.9136516 1.101381 0.1190655 8 16 8
-1.171847 1.212594 0.1749344 24 36 32
-1.130074 1.062718 0.1512021 0 4 0
-1.169309 1.209383 0.1741955 8 16 16
-1.166955 1.190678 0.1363422 8 12 8
-1.141836 1.138362 0.2091078 0 8 8
-1.144902 1.141706 0.2823915 16 20 24
-1.21503 1.088527 0.4633324 32 48 49
-0.8575386 1.071215 0.1184296 16 16 16
-1.226543 1.089961 0.4720553 49 64 65
-1.196219 1.101374 0.4200156 32 40 41
-1.162701 1.065637 0.3933799 57 80 82
-1.146621 1.178066 0.1926581 0 8 8
-1.148651 1.095251 0.1395071 0 4 0
-1.153434 1.198236 0.1544039 8 12 8
-1.169447 1.227447 0.1752966 24 28 24
-1.157167 1.223426 0.1327046 8 12 8
-1.038368 0.8182172 0.5884316 0 8 0
-0.9647181 0.6673087 0.6459993 0 4 0
-0.9725092 0.6895712 0.5747787 0 0 0
-0.9505044 0.6094597 0.5718697 8 8 8
-0.9850552 0.7052901 0.5946969 8 12 8
-0.9181583 0.5114565 0.9339953 16 20 16
-0.9007977 0.7419069 0.8505308 16 28 24
-1.040659 0.8147066 0.8625985 8 12 8
-0.9652101 0.6631101 0.6430782 0 4 0
-0.968825 0.6821197 0.5816206 16 20 16
-1.008145 0.800815 0.54383 8 16 16
-0.9704508 0.6733519 0.5616518 0 0 0
-0.9665356 0.6518046 0.6169258 8 16 16
-1.015873 0.8083749 0.7085122 0 8 0
-1.112164 0.8327479 0.7669533 8 8 8
-0.9991224 0.748942 0.5597488 0 0 0
-0.9503713 0.5784313 0.5687154 8 12 8
-0.9706918 0.6869053 0.6790793 8 12 8
-0.3222154 1.886701 0.007780492 16 20 24
-0.1808804 1.083586 0.115934 24 32 32
-0.2511832 1.040942 0.1256362 8 20 16
-0.2859687 1.05895 0.1132336 0 8 8
-0.2072342 1.071936 0.1195079 24 40 41
-0.2798919 1.046769 0.1145635 32 36 41
-0.2746392 1.057734 0.1144766 8 12 16
-0.1738731 1.083266 0.1203328 24 44 41
-0.1954386 1.051152 0.1142211 0 4 0
-0.1414898 1.079594 0.1154535 0 12 8
-0.1737905 1.082713 0.1204354 24 44 49
-0.1635514 1.06884 0.1173787 0 4 0
-0.3064101 1.049562 0.1138376 8 16 16
-0.2774024 1.05025 0.1139976 24 32 32
-0.2897723 1.714209 0.02437271 0 8 8
-0.1824399 1.083362 0.1125589 16 24 16
-0.2536496 1.039437 0.1208268 24 40 41
-2.103512 0.2609654 0.2767634 41 56 65
-2.049155 0.2937894 0.3667925 57 68 65
-2.011691 0.2549914 0.3345383 16 28 24
-1.77251 0.2586929 0.3356264 16 20 16
-2.050652 0.2073749 0.2161316 115 125 98
-0.7931637 -0.006863839 0.6551093 49 60 57
-0.4656018 0.6569079 0.2558304 8 16 16
-0.3922089 0.6751155 0.2814389 49 85 82
-0.4191029 0.6588169 0.2269035 24 44 49
-0.5467267 0.566614 0.2834435 57 89 90
-0.867754 0.2647433 0.2889926 49 48 57
-0.3039181 0.6987746 0.2921262 65 93 90
-0.2842009 0.6718103 0.2469866 115 145 139
-0.2540833 0.6116855 0.1224559 82 101 98
-0.1363113 0.6718089 0.1361711 8 20 16
-1.079629 0.324779 0.9536255 74 64 57
-1.332453 0.1297649 0.1456571 115 85 65
-0.8765523 -0.01246172 0.5082296 57 64 65
-1.136402 0.02944921 0.07080112 32 28 24
-0.9441512 0.1428457 0.2804377 8 16 16
-0.9327531 0.1416947 0.2331998 8 20 24
-0.9460686 0.02926928 0.5070592 8 16 16
-0.9864697 0.08103812 0.1304789 57 56 57
-0.4789437 0.7033936 0.2707852 49 68 74
-0.9185914 0.6193879 1.585472 49 60 82
-1.064201 0.6533938 1.382931 24 28 41
-1.050651 0.4720433 1.529517 164 165 131
-1.10448 0.4508687 1.590965 139 133 115
-1.011846 0.608054 1.647577 41 56 65
-1.052667 0.4651941 1.647891 41 48 41
-1.072258 0.6071643 1.964643 49 60 74
-1.103995 0.4602365 1.747216 148 137 115
-1.107592 0.4935528 1.871028 90 93 65
-1.025466 0.5155029 1.832802 82 101 106
-1.21732 0.5450609 1.841637 131 133 106
-1.045331 0.5261166 1.868836 49 76 82
-1.103835 0.5370302 2.078555 230 246 255
-1.052759 0.4702044 1.713484 41 48 49
-1.077373 0.4871293 1.872687 180 178 148
-1.209536 0.3386708 1.062267 131 105 90
-1.765399 -0.7987189 -0.2101273 57 64 74
0.3551395 -0.1839406 -0.2232655 65 56 49
-1.809764 0.2551624 0.2907892 24 28 24
-1.038984 0.4730861 1.680756 32 44 49
-0.3446542 0.2341286 -0.1936559 16 16 16
-1.764124 0.291979 0.2386798 8 12 8
-0.9473195 0.2186552 0.08978144 57 44 41
-1.849085 0.2679244 0.3910096 82 117 115
-1.368977 0.02574158 -0.1305686 32 32 32
-2.006912 0.07011543 0.07219946 82 52 41
-1.362463 0.5391985 1.406453 222 238 246
-1.139183 0.4600632 1.737735 123 113 82
-1.76626 0.351446 0.3921582 74 89 90
-1.900659 0.2603818 0.3124776 8 16 16
0.04173195 0.7270885 -0.1183773 65 68 82
-1.72245 0.2019238 0.1110793 49 40 32
-1.345047 0.02348167 -0.1339295 32 32 32
-0.188719 0.6710126 0.3481606 32 36 32
-2.121566 0.2618517 0.4358886 41 64 65
-2.118745 0.01133551 -0.08572162 74 52 41
-2.263043 0.06181936 -0.0895616 0 0 0
-2.135833 0.149839 0.1412286 41 48 49
0.4170021 0.5041741 -0.1873832 41 32 24
-1.749122 -0.7812697 -0.1865052 16 16 16
-2.205248 0.318579 0.5292889 148 157 139
-2.03201 0.1862341 0.1721177 16 28 24
-2.076699 0.03803364 0.05220019 41 36 32
-0.8842061 -0.004748361 0.6069044 24 36 32
-1.804133 0.2478215 0.3735433 74 105 106
-1.09231 0.5915283 1.2907 16 24 24
-1.962609 0.1529219 0.1150336 57 44 41
-2.92471 2.884411 2.324347 238 250 255
-1.068105 0.4677204 1.693185 106 121 106
-1.766659 0.2103041 0.1148605 57 44 41
-2.2036 0.1996463 0.1846997 41 52 57
-2.116065 0.1569989 0.1356873 65 76 74
-0.9567155 0.09811307 0.1428382 32 32 32
-1.743565 -0.002100197 -0.08693211 65 48 41
-2.036089 0.3060235 0.6013504 82 101 98
-1.81714 0.195826 0.1110205 57 40 41
-1.358268 0.04006718 -0.1140142 41 40 41
-2.436409 -0.2706378 -0.1613292 65 68 65
-0.4833548 0.5996551 0.3055706 24 44 49
-1.067023 0.0009826816 0.2984979 106 125 106
-1.992605 0.313369 0.4854443 41 68 65
-2.097571 0.2757418 0.3635304 24 44 49
-1.996312 -0.8174331 -0.2085287 41 48 49
-1.122674 0.5332363 1.952083 65 68 65
