ply
format ascii 1.0
element vertex 1167
property float x
property float y
property float z
property uchar red
property uchar green
property uchar blue
end_header
0.9950159 0.8787859 0.4455021 98 60 49
1.591005 1.066368 0.5196506 189 198 205
0.8867565 0.9510195 0.2362692 156 113 106
0.9594352 0.9243944 0.3624351 189 121 65
1.116025 1.21326 0.1294529 213 206 180
1.608425 1.003548 0.3413316 180 182 189
0.9791961 0.9060544 0.3555332 90 48 41
0.9529798 0.9131768 0.3152185 115 80 65
1.00402 0.8822048 0.3461524 115 60 41
0.9927407 0.8971969 0.3088096 197 133 74
1.585706 0.9664826 0.4031149 74 68 65
0.9710218 0.9178721 0.3385099 180 121 90
1.012152 0.8649164 0.4848385 115 64 49
0.9646357 0.91359 0.382349 180 121 98
0.9613668 0.9338341 0.5483435 172 109 65
0.9837313 0.896778 0.5119337 106 60 41
1.613845 1.076345 0.2383941 197 206 222
1.119091 1.306185 0.1256981 255 234 222
0.8631098 0.9468949 0.1425768 180 129 115
1.555784 0.177211 -0.03097515 123 121 90
1.273992 0.4162058 0.02995045 49 60 49
1.664384 0.2983089 -0.3081211 172 125 106
1.493438 0.2500469 -0.1698079 57 32 16
1.524359 0.2519251 -0.1469611 65 60 41
1.279343 0.4020233 0.03189128 148 137 115
1.511127 0.09230027 -0.01968328 98 101 82
1.702946 0.429004 -0.3641079 139 137 139
1.484043 0.08033684 0.0111081 57 52 41
1.394609 0.02772522 0.1077802 131 80 57
1.298731 0.3810271 0.006919265 139 133 139
1.261314 0.3932995 0.0822063 164 109 82
1.373531 0.07147747 0.1243502 82 72 57
1.43001 0.293497 -0.01172398 98 117 65
1.396514 0.01160035 0.1049132 98 40 32
1.475256 0.08627129 0.03765245 57 60 24
1.298542 0.3030981 0.09002656 156 105 90
1.388595 0.08674697 0.09269518 205 165 139
1.31758 0.2473976 0.09286285 148 89 74
1.388055 0.07913712 0.101462 222 186 164
1.49547 0.08880098 0.01264216 98 109 74
1.300723 0.3741363 0.01271309 32 32 32
1.505435 0.2974974 -0.1425309 189 149 123
1.388097 0.08468722 0.09831565 164 129 106
1.473156 0.0828315 0.03466277 32 36 8
1.306892 0.268238 0.1149453 172 117 98
1.372881 0.3557053 -0.05134685 115 97 98
1.343921 0.3078001 0.01478501 115 109 106
1.477281 0.1119342 0.02415635 106 105 57
1.537135 0.2222399 -0.00392364 74 72 41
1.396709 0.04204172 0.09963528 189 145 123
1.489207 0.2937077 0.01006279 106 105 65
1.541834 0.1929895 -0.005734909 123 125 82
1.392584 0.04704319 0.1023666 156 117 98
1.52905 0.03837338 -0.01076327 98 101 74
1.52115 0.07659803 -0.02580645 82 85 65
1.520603 0.03598098 0.01507949 41 40 16
1.516372 0.2658103 -0.01655045 164 145 74
1.49608 0.2745507 -0.1186928 139 80 57
1.694279 0.4363968 -0.3370861 222 186 156
1.318908 0.2440952 0.1040936 222 145 106
1.292573 0.3058883 0.116308 213 137 98
1.447988 0.2325075 0.05055719 106 109 57
1.288542 0.3894638 0.06325743 131 121 74
1.290709 0.3922966 0.04780531 131 121 74
1.29626 0.3716635 0.05965558 156 133 82
1.490994 0.2659576 -0.157041 74 36 8
1.329215 0.2612378 0.08283168 115 93 41
1.291512 0.3946958 0.03962684 74 68 41
1.515957 0.2479438 -0.1540974 82 52 24
1.56733 0.3660294 -0.249061 98 68 49
1.307793 0.2739474 0.1065726 205 117 82
1.44752 0.2252354 0.04895452 131 129 57
1.489913 0.2923891 -0.1734327 82 36 16
1.458589 0.2136398 0.0420219 131 129 57
1.412843 0.3343955 -0.07636374 90 52 16
1.312122 0.2666491 0.1035358 189 113 74
1.378871 0.1951544 0.07350201 123 40 8
1.436959 0.3058614 -0.1124417 230 149 106
1.313595 0.2926525 0.06041453 222 141 106
1.574868 0.4106041 -0.276082 222 174 139
1.62152 0.2765481 -0.2408988 123 101 90
1.337996 0.3388353 -0.02411021 213 129 90
1.327387 0.3279935 0.03360418 82 80 32
1.322657 0.340102 0.04057042 82 72 32
1.33944 0.2097746 0.1073724 222 149 98
1.248888 0.4099143 0.1133905 123 48 24
1.243562 0.4257445 0.09205174 230 161 123
1.540138 0.2239058 -0.05780476 74 48 16
1.286703 0.3450544 0.07031713 90 56 16
1.304691 0.309991 0.0601851 230 141 115
1.423158 0.3134994 -0.01875077 49 36 0
1.514695 0.2555899 -0.02511939 82 64 24
1.308179 0.3725589 0.02192659 115 113 65
1.293891 0.2731658 0.1096479 205 129 82
1.7099 0.4234464 -0.3515292 164 137 123
1.283015 0.3349094 0.1078356 164 93 65
1.262616 0.4286086 0.06246169 205 145 106
1.326117 0.2233288 0.1166622 213 137 90
1.455532 0.2119004 0.04493751 90 85 24
1.524111 0.3463239 -0.1897759 238 194 156
1.613791 0.3085314 -0.2510544 148 105 82
1.676397 0.2103104 -0.3011278 213 145 106
1.623363 0.3000257 -0.2515854 180 161 148
1.295736 0.296293 0.116542 222 149 115
1.597802 0.3581101 -0.276677 213 141 98
1.455623 0.2055798 0.05515566 123 101 41
1.631683 0.2286027 -0.2695957 230 170 123
1.630455 0.3201712 -0.2913661 238 174 131
1.636092 0.2113137 -0.2302678 131 105 90
1.291874 0.3263885 0.06998517 82 60 24
1.506555 0.2659721 -0.0370126 65 48 24
1.278204 0.337282 0.1002595 213 133 82
1.62311 0.2208749 -0.242189 74 52 32
1.426455 0.2952021 -0.09066413 222 153 106
1.508582 0.249212 -0.1190016 148 117 65
1.263706 0.3904555 0.1135749 205 125 82
1.27891 0.3557 0.0804128 222 137 98
1.414204 0.2770669 0.04387432 82 72 24
1.507243 0.268351 -0.07504589 74 56 24
1.644848 0.2532843 -0.2952576 222 170 131
1.510053 0.2968039 -0.1326015 213 161 131
1.42142 0.2679149 0.03876932 65 60 16
1.440259 0.223719 0.05729834 123 113 49
1.567338 0.401094 -0.2589144 205 153 115
1.450473 0.2298762 0.04622221 49 36 8
1.325454 0.2657821 0.08790804 123 97 41
1.488923 0.2649738 -0.09180331 115 105 98
1.417149 0.2911569 0.02302886 123 121 57
1.520472 0.2558845 -0.0974512 90 72 41
1.281951 0.3299493 0.1102272 205 133 90
1.546036 0.2034557 -0.03285606 172 153 123
1.300721 0.3575094 0.0565818 82 72 24
1.311279 0.3709389 -0.00779217 82 64 41
1.573401 0.2115574 -0.1904941 90 64 49
1.332543 0.3364643 -0.0146368 197 170 148
1.497666 0.2854333 -0.06554786 148 121 90
1.482411 0.2948343 -0.1482518 164 101 65
1.502769 0.2519693 -0.03336788 189 165 131
1.412431 0.3051125 0.02041281 123 117 65
1.299997 0.380976 0.0305375 131 117 74
1.333685 0.252469 0.08067578 131 105 49
1.56433 0.4020305 -0.228879 205 182 172
1.275828 0.4007738 0.04224525 205 149 106
1.270086 0.3490442 0.1018741 222 145 98
1.291217 0.381439 0.06376372 74 60 24
1.295294 0.2850899 0.1629483 238 165 115
1.612098 0.3683337 -0.2931706 213 149 115
1.539039 0.2416328 -0.1677144 197 178 164
1.507199 0.2438005 -0.1477248 156 121 74
1.311563 0.2649389 0.1535736 213 137 98
1.503851 0.2903142 -0.103526 131 97 49
1.369395 0.2037834 0.147135 222 145 106
1.276142 0.3176699 0.1325696 230 149 106
1.413902 0.1903249 0.06774905 222 170 131
1.4406 0.2747914 0.03210222 74 64 32
1.317032 0.2576552 0.1235006 164 105 82
1.289479 0.2907192 0.1437175 213 137 98
1.253919 0.3691919 0.1245484 189 121 74
1.380875 0.2061679 0.1893633 123 56 24
1.561189 0.3897747 -0.2492239 57 32 16
1.348854 0.2234557 0.1542085 222 149 106
1.259572 0.351222 0.1353057 222 157 115
1.399065 0.1892126 0.1565243 222 145 98
1.325817 0.3648527 0.01584749 131 117 65
1.327296 0.270174 0.06123446 57 44 8
1.469805 0.3009064 -0.1644091 139 93 57
1.284954 0.3563363 0.06999543 213 129 82
1.805426 0.6787004 -0.2831411 197 178 156
1.276921 0.3207575 0.1114504 213 133 98
1.271643 0.3309152 0.1423863 222 149 98
1.523663 0.2897929 -0.2138369 222 190 164
1.427922 0.1782102 0.2051017 230 157 106
1.48301 0.428901 -0.1249274 230 165 131
1.293437 0.2915441 0.1289381 213 129 90
1.494112 0.2727789 -0.1450036 123 89 41
1.415459 0.312414 -0.01217811 123 113 49
1.239155 0.3827594 0.1302219 213 137 98
1.416204 0.3177648 -0.02390194 49 40 8
1.407269 0.1963827 0.219078 189 125 90
1.361248 0.2207368 0.1800396 205 121 82
1.487219 0.290948 -0.09454683 139 113 57
1.41701 0.3354297 -0.03868937 57 56 32
1.839238 0.04153275 -0.3053164 57 52 57
1.380511 0.04580288 0.07831981 148 109 82
1.627915 0.3241238 -0.2959065 180 129 106
1.306704 0.2592506 0.123583 156 113 98
1.367119 0.1341727 0.08660954 180 141 123
1.460454 0.1502499 0.04224489 115 125 82
1.683773 0.2064918 -0.3011738 164 133 115
1.3705 0.03612157 0.1151719 213 149 115
1.54109 0.1303375 -0.08307674 115 117 115
1.318431 0.240906 0.08697908 197 133 106
1.500344 0.08578721 -0.0264705 82 85 65
1.406157 0.3399369 0.005658438 115 117 82
1.561406 0.1743514 -0.1260029 65 60 32
1.693015 0.2090847 -0.3117871 205 170 148
1.596732 0.03309878 -0.1618359 74 56 41
1.549919 0.1534526 -0.1537717 90 89 90
1.575242 0.3999752 -0.2350641 82 76 74
1.533586 0.04011841 -0.06578269 24 24 8
1.559212 0.1897568 -0.07263133 41 36 24
1.511076 0.04849962 -0.00687666 106 109 74
1.439152 0.3190653 -0.05658237 32 44 16
1.535618 0.01771133 -0.04860675 57 60 41
1.721139 0.149738 -0.2839195 82 76 74
1.557706 0.1714665 -0.1547145 123 113 82
1.56625 0.09146582 -0.1624215 123 93 82
1.569739 0.1801521 -0.1317167 115 109 65
1.591224 0.3653596 -0.2738242 156 113 98
1.364395 0.1681591 0.08777267 164 121 106
1.278883 0.3646969 0.09398887 115 68 57
1.354488 0.2103111 0.07846389 205 161 139
1.517855 0.06284676 -0.01259512 115 121 90
1.712564 0.4243318 -0.3365422 189 186 180
1.377368 0.04715073 0.07333396 172 113 74
1.569577 0.1740439 -0.1088888 65 56 32
1.303621 0.3128538 0.05294977 189 141 123
1.27923 0.3925413 0.06842843 139 113 106
1.727103 0.1357063 -0.3007718 82 60 49
1.373228 0.05993575 0.09815797 180 149 131
1.582043 0.07809549 -0.1777739 180 133 106
1.323969 0.4265026 0.0149839 74 68 49
1.497789 0.284611 -0.1262634 222 149 98
1.53185 0.2396295 -0.1014948 123 105 57
1.492696 0.2977656 -0.0413052 65 60 16
1.279535 0.3398479 0.09658657 197 125 82
1.291938 0.3174629 0.1088861 213 133 90
1.67466 0.2267727 -0.3023723 213 149 106
1.272158 0.3666513 0.1053446 205 117 82
1.322086 0.2402633 0.09055726 197 113 82
1.327478 0.2187136 0.09790161 213 133 98
1.367253 0.2059959 0.08020458 246 202 156
1.532634 0.2394272 -0.07544936 98 76 24
1.301638 0.3582992 0.06028778 172 141 82
1.333743 0.2485797 0.06937629 90 68 24
1.32646 0.2454982 0.06012478 90 68 41
1.438456 0.8853006 -0.3119868 213 190 172
1.564341 0.203343 -0.07472596 172 145 65
1.290402 0.2875536 0.1332896 222 141 98
1.771783 1.186743 -0.04801956 57 44 41
1.549745 0.2174048 -0.1191421 156 129 65
1.397477 0.1835462 0.1478518 205 125 82
1.49181 0.2780257 -0.1666963 123 64 32
1.812696 1.23031 -0.00375162 41 24 24
1.377383 1.108785 -0.2130038 82 44 32
1.618643 0.2821698 -0.236688 172 161 148
1.400637 0.1855296 0.1560812 205 125 82
1.332007 0.2278796 0.07960153 230 153 106
0.897523 0.9809642 0.1630594 205 153 131
1.498799 0.426498 -0.126114 222 182 156
1.510542 0.2468317 -0.06991133 148 141 90
1.472589 1.107317 -0.09316389 24 4 0
1.275941 0.336102 0.1459584 205 129 90
1.273779 0.3209517 0.1485832 230 157 106
1.4873 0.9500828 -0.2237729 74 56 57
1.497444 0.285762 -0.07320415 90 72 41
1.413869 0.3088616 -0.04007991 41 36 0
1.469063 0.8018879 -0.3523814 98 80 65
1.409659 0.2854414 0.01875819 106 101 49
1.295094 0.2932042 0.1310095 205 125 90
1.404591 0.3271717 -0.03197281 156 145 98
1.73472 1.206928 0.2805947 24 16 8
1.312764 0.2827898 0.06155669 115 80 49
1.417206 0.3160527 -0.07189707 123 109 65
1.257651 0.3529744 0.1472412 205 125 90
1.428208 0.3153898 -0.1126503 230 157 115
1.251832 0.362285 0.1491562 222 141 98
1.32939 0.347922 0.00471451 74 64 24
1.507837 0.2624315 -0.0355619 148 129 74
1.540189 1.08885 0.2023687 197 202 205
1.405467 -0.08444191 0.343127 205 125 82
1.389447 -0.2415949 0.1777267 180 109 65
1.330563 -0.5422213 0.03909665 205 141 98
1.436244 -0.09376636 0.06711873 49 28 24
1.37641 -0.2543845 0.264003 164 85 49
1.328328 -0.4058978 0.3308764 180 105 65
1.370698 -0.2504607 0.3065342 172 97 57
1.399583 -0.101452 0.2290042 180 105 65
1.331827 -0.4152431 0.2980435 213 137 90
1.487572 -0.04408674 -0.08506445 49 24 16
1.378148 -0.2324729 0.282599 197 113 74
1.561946 -0.4960726 -0.2848187 139 117 106
1.630644 -0.1525071 -0.2782781 213 161 115
1.455755 -0.02234003 0.06567965 189 117 74
1.441677 -0.1119723 0.06291977 123 80 49
1.405055 -0.08155503 0.1643628 123 72 41
1.345397 -0.3922982 0.2389365 148 72 49
1.394597 -0.2274107 0.2775864 180 101 65
1.348711 -0.416216 0.164681 172 101 65
1.419878 -0.2742987 0.01831366 139 89 57
1.378375 -0.3096342 0.1991565 180 101 65
1.373863 -0.246025 0.2693481 180 101 57
1.678434 -0.1376055 -0.3362491 197 129 90
1.347657 -0.45165 0.1259948 106 68 32
1.381615 -0.1802162 0.2440436 180 101 74
1.34048 -0.4266225 0.2341257 205 121 90
1.391992 -0.2058838 0.1654418 172 109 74
1.376406 -0.3022573 0.2304409 172 93 57
1.419289 -0.04534656 0.3017909 172 97 57
1.421222 -0.03756766 0.2272853 156 93 57
1.397131 -0.2690048 0.1488021 213 178 115
1.425737 -0.1754942 0.05432431 65 44 32
1.350088 -0.3500569 0.3197292 222 149 98
1.362124 -0.2794538 0.2943373 205 117 65
1.410626 -0.06119301 0.2691906 172 93 57
1.368392 -0.4940178 -0.02519134 205 141 82
1.408221 -0.08096969 0.2340091 172 101 65
1.542796 -0.2367843 -0.1884781 180 113 82
1.382319 -0.1635281 0.2974288 189 109 65
1.536878 -0.1730357 -0.1717985 197 121 82
1.430674 -0.04728726 0.112047 74 20 8
1.405324 -0.1076239 0.2297802 197 117 74
1.396904 -0.1554988 0.1422347 115 60 32
1.368345 -0.2610798 0.3214931 213 137 90
1.3526 -0.4079306 0.1788869 172 93 57
1.353873 -0.3879719 0.2369511 148 72 41
1.384717 -0.3207777 0.1570966 189 117 82
1.402229 -0.1990928 0.1363416 172 101 74
1.390633 -0.135451 0.3004892 172 89 57
1.387479 -0.1367412 0.3397915 180 113 74
1.321269 -0.5121591 0.1503281 131 89 74
1.333174 -0.3839614 0.3157621 197 121 82
1.385407 -0.1657411 0.2781542 197 109 65
1.441548 -0.07428497 0.1036474 172 101 65
1.367767 -0.2972139 0.276131 189 113 65
1.381816 -0.2986341 0.1930889 189 109 65
1.412698 -0.06680202 0.2791025 189 105 74
1.383808 -0.2419665 0.2305146 189 105 65
1.369107 -0.4014128 0.1245005 213 129 82
1.571459 -0.3993888 -0.3207422 230 174 123
1.506739 -0.5116763 -0.2005336 189 145 115
1.441398 -0.08925784 0.1144811 205 133 90
1.364268 -0.3638053 0.2358828 172 109 82
1.392789 -0.1929259 0.22259 197 113 74
1.337706 -0.366255 0.3330126 222 161 106
1.353654 -0.3416609 0.2977914 213 137 90
1.364394 -0.3066975 0.2977268 205 125 74
1.367393 -0.3846228 0.1448956 189 105 65
1.394791 -0.3014406 0.1214038 164 97 74
1.450563 -0.3231459 -0.05977149 156 97 74
1.398611 -0.1316304 0.2113201 164 97 65
1.371452 -0.3659484 0.1548502 164 89 57
1.409899 -0.05870885 0.2019675 115 56 32
1.390484 -0.2423555 0.1916263 180 109 65
1.352074 -0.455498 0.1075137 197 117 74
1.467676 -0.1876591 -0.03887594 205 170 131
1.342185 -0.4413297 0.1878023 156 68 41
1.349087 -0.3941417 0.2449587 189 105 65
1.378476 -0.2942583 0.2005402 156 80 49
1.40132 -0.1000665 0.1813774 189 117 65
1.364175 -0.2411066 0.3228985 197 125 82
1.624595 -0.1350383 -0.267755 205 137 106
1.41954 -0.05259699 0.2808998 156 76 49
1.533281 -0.06540993 -0.1598661 197 117 74
1.330839 -0.4497886 0.2840919 172 89 57
1.334708 -0.3720792 0.3335212 222 157 106
1.378765 -0.2341001 0.2922314 197 117 74
1.477111 -0.4798072 -0.1743864 213 141 98
1.340651 -0.435341 0.1714057 180 105 74
1.313924 -0.4734862 0.3326784 213 137 90
1.388234 -0.1769197 0.2028588 197 121 82
1.347516 -0.4458169 0.1388841 189 117 65
1.331958 -0.385574 0.342694 222 161 131
1.327273 -0.5406277 0.0126235 115 93 65
1.413731 -0.06547545 0.30935 172 89 49
1.307525 -0.5014551 0.2742519 189 113 74
1.315836 -0.5002826 0.1852856 139 80 57
1.666709 -0.08060007 -0.2771883 213 157 123
1.379244 -0.254561 0.2504677 180 101 57
1.377303 -0.1575431 0.3023097 189 105 74
1.42215 -0.2392832 0.0623191 74 20 8
1.420468 -0.0350709 0.2568085 180 105 74
1.406372 -0.09896095 0.2373762 164 101 65
1.519637 -0.2782995 -0.1586821 213 145 106
1.359263 -0.4803723 -0.01138108 82 48 32
1.366408 -0.2861652 0.3044684 172 97 57
1.374719 -0.3694907 0.1370894 197 117 74
1.48016 -0.1380844 -0.09318215 156 117 90
1.391807 -0.3283095 0.1412908 213 170 131
1.33348 -0.4246335 0.2795244 148 80 57
1.389108 -0.1066134 0.2153946 164 101 65
1.418271 -0.05069859 0.2566464 197 125 74
1.314578 -0.4620017 0.3303848 189 117 65
1.39676 -0.1368378 0.1557884 139 72 41
1.44577 -0.2052019 0.03260743 189 141 115
1.441846 -0.03432073 0.1229527 213 133 82
1.384511 -0.2486601 0.2120242 172 97 65
1.363869 -0.3938605 0.1599938 180 105 65
1.399141 -0.08639631 0.2404939 180 105 65
1.380128 -0.2223953 0.288826 197 113 65
1.480982 -0.1601366 -0.06696957 148 109 82
1.306158 -0.5220927 0.1198703 148 93 74
1.496699 -0.08178011 -0.09449729 115 93 74
1.380646 -0.2445743 0.257152 180 97 49
1.384456 -0.2384197 0.2075864 123 48 24
1.441761 -0.07062813 0.08617295 172 97 65
1.408233 -0.05999814 0.1714207 106 48 24
1.364774 -0.3648042 0.1989659 197 113 74
1.323362 -0.4624886 0.2932734 213 129 74
1.385017 -0.172846 0.2569338 172 93 57
1.435331 -0.01322203 0.2786513 164 76 41
1.404198 -0.1063933 0.2436784 189 113 74
1.390879 -0.2145768 0.1984136 197 121 82
1.515447 -0.1393606 -0.1514906 197 125 82
1.384786 -0.4010065 0.1630703 180 105 74
1.381347 -0.2363264 0.2563358 98 40 24
1.378477 -0.2337518 0.2602974 139 76 57
1.335294 -0.4678576 0.2079512 172 97 57
1.641705 -0.07746526 -0.2346196 205 157 123
1.397872 -0.122946 0.2511479 197 109 74
1.413057 -0.07611212 0.3365557 123 60 41
1.388883 -0.1228416 0.3297213 180 105 57
1.44993 -0.4470668 -0.09050009 189 117 74
1.541675 -0.312749 -0.1979963 205 137 98
1.380776 -0.2549794 0.1645041 197 117 74
1.377103 -0.2042353 0.3189461 197 113 65
1.350657 -0.3363264 0.3030069 213 137 90
1.394586 -0.3098091 0.1352378 115 64 41
1.373807 -0.2827183 0.2439849 164 85 49
1.576627 -0.2592144 -0.2320713 205 133 98
1.371888 -0.4092459 0.09070604 74 48 32
1.41412 -0.05007022 0.2666712 164 89 57
1.318515 -0.4603259 0.3230784 197 117 65
1.456516 -0.2475634 -0.03128532 65 48 32
1.383337 -0.2968843 0.1869874 205 117 74
1.392083 -0.2030439 0.1946293 180 97 65
1.357263 -0.3946764 0.1787636 205 117 74
1.390348 -0.1165252 0.3034868 172 93 57
1.407509 -0.08443427 0.3255068 172 93 57
1.401738 -0.2608671 0.1440193 139 60 32
1.402709 -0.1157683 0.2542577 189 105 74
1.335573 -0.4397002 0.2577771 148 72 41
1.398399 -0.2110374 0.1501904 82 56 16
1.398016 -0.0997375 0.2754855 90 28 8
1.439797 -0.1086164 0.03483988 164 125 98
1.533045 -0.04100012 -0.02339368 148 125 98
1.360068 -0.3784594 0.1958351 197 113 74
1.385818 -0.2364628 0.2210024 139 68 41
1.34295 -0.4397121 0.2010731 172 93 65
1.374152 -0.2279694 0.3170233 172 97 57
1.339207 -0.4708231 0.1312062 172 109 74
1.571913 -0.02685838 -0.1754834 213 149 106
1.410437 -0.1399999 0.131418 230 170 131
1.3161 -0.4533145 0.3330966 189 113 57
1.357427 -0.4271703 0.122426 49 12 0
1.404433 -0.1042997 0.2446424 189 109 74
1.397174 -0.1890438 0.1653555 123 76 57
1.411567 -0.05469324 0.2905379 164 80 49
1.404762 -0.3260716 0.05545192 222 149 106
1.381109 -0.2757573 0.1727256 164 89 57
1.41907 -0.05308197 0.3108808 164 80 49
1.398404 -0.1927528 0.1362558 172 105 57
1.391331 -0.1873926 0.2272776 156 85 57
1.388721 -0.1607107 0.2907532 180 101 65
1.429101 -0.512867 -0.1259001 189 109 65
1.398052 -0.1183188 0.1461794 139 76 49
1.417375 -0.1439894 0.005145436 180 137 115
1.377995 -0.2192545 0.3003778 197 109 65
1.337405 -0.4433108 0.2022631 189 109 74
1.354157 -0.2763287 0.3311987 213 149 98
1.401367 -0.1868446 0.1471841 131 72 49
1.384277 -0.2456386 0.2358141 139 64 24
1.38925 -0.4105549 0.1354593 197 117 65
1.370075 -0.2137889 0.3234581 205 129 82
1.477045 -0.1956987 -0.06109641 115 76 41
1.409454 -0.06184928 0.1545067 164 89 57
1.680465 -0.1341448 -0.3338934 213 149 106
1.385645 -0.3396443 0.1475392 230 198 164
1.384442 -0.3320135 0.1510424 230 194 148
1.432691 -0.01972154 0.1518854 205 141 98
1.333433 -0.4383682 0.280531 189 109 65
1.387827 -0.3921342 0.02498661 205 137 98
1.384395 -0.2680714 0.1797312 205 129 90
1.385153 -0.1920287 0.2370798 180 101 65
1.383356 -0.2934937 0.1916806 164 85 41
1.412848 -0.05805933 0.2569808 139 76 49
1.401185 -0.214632 0.1302041 115 72 49
1.391062 -0.1639792 0.2828315 172 93 57
1.432304 -0.1163624 0.1049111 222 149 106
1.421814 -0.1680156 0.1138181 222 153 106
1.42824 -0.02338845 0.2262541 131 76 49
1.555513 -0.4417935 -0.3049259 172 117 90
1.389614 -0.311659 0.03705591 222 149 106
1.388434 -0.132058 0.249033 172 89 49
1.3562 -0.2968341 0.318498 189 117 65
1.352697 -0.2990555 0.3329142 180 113 74
1.410293 -0.08203136 0.1405092 90 32 24
1.395071 -0.1677646 0.168066 156 89 65
1.382148 -0.3815801 0.07952796 222 149 106
1.368106 -0.3100261 0.2621973 156 80 57
1.398541 -0.1434699 0.144202 172 109 65
1.496552 -0.06630401 0.03448474 57 32 24
1.33618 -0.4043993 0.2185555 148 72 41
1.41811 -0.04022475 0.202525 123 68 41
1.645508 -0.1027255 -0.2397716 197 141 106
1.394875 -0.1274332 0.2173735 205 133 90
1.351757 -0.3475998 0.2714422 189 113 74
1.538223 -0.02219519 -0.02190136 98 80 41
1.394824 -0.1450317 0.223235 205 125 82
1.40577 -0.09927957 0.2993784 90 20 8
1.397132 -0.1211211 0.2938178 180 101 57
1.33614 -0.5175104 0.1138748 164 85 57
1.481257 -0.1618723 -0.07448054 148 121 98
1.370842 -0.2859996 0.2496111 197 113 65
1.386889 -0.1894631 0.2154676 180 105 65
1.33944 -0.4105037 0.2705915 189 113 74
1.380993 -0.4265421 0.05669886 222 149 106
1.354905 -0.4254008 0.1753052 172 97 57
1.654823 -0.1274367 -0.3019382 213 145 106
1.478641 -0.09204632 -0.03987731 49 36 32
1.394817 -0.4603042 -0.02355637 32 28 8
1.378791 -0.2034819 0.2461654 156 76 49
1.395438 -0.2254346 0.1501397 98 68 32
1.398831 -0.09327116 0.2241677 197 125 82
1.317632 -0.4226774 0.3262276 205 125 82
1.391281 -0.3818103 0.05853 213 161 123
1.388528 -0.2742051 0.2169578 189 105 65
1.380796 -0.2726364 0.2613518 180 97 65
1.523997 -0.3867863 -0.1920917 82 60 41
1.330111 -0.5015463 0.2346624 197 113 65
1.369087 -0.2617248 0.2213252 180 97 57
1.500411 -0.1645565 -0.1158342 180 129 98
1.396282 -0.1846891 0.1584004 164 97 57
1.33472 -0.4453093 0.2043657 164 89 57
1.398177 -0.102014 0.341305 164 89 49
1.414538 -0.05525022 0.2666717 197 113 74
1.522481 -0.08127429 -0.1471151 197 121 82
1.362575 -0.3648428 0.2053844 189 109 74
1.398105 -0.1014583 0.320929 156 80 49
1.359796 -0.4324753 0.04695513 197 129 82
1.36575 -0.4232357 0.1293735 82 48 24
1.321135 -0.4358114 0.3463396 106 32 8
1.430565 -0.1235214 0.1214657 230 157 106
1.405242 -0.3154518 0.005214056 205 133 82
1.419922 -0.06748548 0.2668054 189 109 65
1.499408 -0.1256102 -0.1300118 180 113 65
1.353421 -0.3593823 0.2774048 205 125 82
1.409643 -0.04470019 0.2396663 172 105 74
1.416464 -0.04605082 0.2836868 164 85 57
1.411795 -0.1069952 0.2335704 189 113 74
1.542044 -0.3107724 -0.1940417 172 105 57
1.487894 -0.07323706 -0.09620367 57 28 16
1.423689 -0.1362174 0.08592941 205 149 98
1.450451 -0.2480064 -0.06650157 148 101 74
1.522271 -0.05656603 -0.04073447 90 68 24
1.366944 -0.411938 0.1904109 197 109 65
1.357367 -0.300739 0.3120455 164 93 57
1.312586 -0.5097999 0.2625374 148 85 65
1.321209 -0.4968536 0.1362141 106 64 49
1.354292 -0.498507 -0.0156583 164 109 74
1.310474 -0.5160056 0.1502794 172 101 74
1.308055 -0.5409791 0.0975108 131 52 32
1.325805 -0.4918593 0.1435354 180 105 65
1.3004 -0.584873 0.08839577 156 80 49
1.307317 -0.523877 0.1509201 164 89 57
1.333435 -0.5689456 -0.02580689 74 68 32
1.304797 -0.5510733 0.1359011 172 105 57
1.319169 -0.5046051 0.172628 164 93 65
1.296506 -0.5684868 0.120565 205 161 139
1.328804 -0.5157775 0.01382159 123 85 57
1.32494 -0.5009157 0.2155308 164 89 57
1.427583 -0.5555642 -0.1318492 255 186 139
1.495079 -0.5923824 -0.2827554 238 190 148
1.408147 -0.6273658 -0.1402463 238 170 123
1.338559 -0.5488094 0.001984817 82 60 41
1.335665 -0.512266 0.03343962 106 97 41
1.322405 -0.5333019 0.02494204 115 89 74
1.334455 -0.5543025 8.472573E-05 123 113 90
1.364464 -0.591399 -0.05454663 131 68 41
1.315434 -0.5481616 0.0671525 222 137 82
1.415788 -0.5656527 -0.07081641 123 105 74
1.33371 -0.5190166 0.03585159 131 117 65
1.41952 -0.6265621 -0.1620889 255 198 148
1.423043 -0.6191617 -0.1588278 255 202 156
1.327699 -0.5871643 -0.01021711 139 121 82
1.335003 -0.5821868 -0.03517941 106 93 41
1.317494 -0.5369618 0.02812945 197 149 123
1.388724 -0.6160829 -0.09797057 230 157 106
1.329933 -0.5214078 0.03031829 180 137 98
1.310209 -0.5584209 0.06561764 131 52 24
1.345676 -0.5442979 -0.03209563 164 145 115
1.411617 -0.5351396 -0.05249185 74 68 65
1.555081 -0.4266274 -0.2682193 106 60 49
1.344002 -0.5387231 0.0005617433 98 80 41
1.539922 -0.4421821 -0.2289754 238 198 148
1.507986 -0.325794 -0.1180001 148 121 106
1.475974 -0.3769898 -0.1116381 230 157 106
1.509311 -0.4987378 -0.2042538 172 149 131
1.558847 -0.3537462 -0.2654307 230 182 139
1.562671 -0.3392198 -0.2694859 238 190 148
1.435913 -0.4974874 -0.1210607 222 141 98
1.581037 -0.3569173 -0.342402 246 194 148
1.4307 -0.4427004 -0.07406706 139 93 74
1.561043 -0.3323264 -0.2476315 197 170 156
1.572672 -0.3181466 -0.2773536 197 161 139
1.541578 -0.4683059 -0.3486938 205 170 148
1.532488 -0.3626595 -0.1969318 82 48 41
1.382126 -0.4845044 -0.02361426 65 72 32
1.404186 -0.3593839 -0.001590615 49 20 8
1.560303 -0.4196241 -0.245762 90 89 74
1.414949 -0.3568558 0.03938775 65 28 16
1.383117 -0.4295972 0.04772445 180 137 115
1.391239 -0.4070863 0.03983039 197 157 131
1.458583 -0.4130763 -0.1200091 172 113 90
1.458619 -0.4570268 -0.1400046 172 121 98
1.585262 -0.3553736 -0.3380127 189 157 131
1.549399 -0.4095999 -0.2956133 172 141 123
1.564209 -0.4652203 -0.2135697 180 161 148
1.426212 -0.3219671 0.02300523 172 137 123
1.463782 -0.4062418 -0.07385213 65 56 49
1.533526 -0.5299901 -0.2451292 123 117 123
1.360749 -0.4900905 0.00573963 90 85 82
1.466238 -0.4086679 -0.1274743 180 133 106
1.388292 -0.3996934 0.005702233 65 32 24
1.403687 -0.3790564 -0.005705696 32 12 8
1.356297 -0.4882537 0.01845434 205 161 139
1.359577 -0.4900193 0.0295571 74 28 16
1.385189 -0.4100245 0.01486305 172 137 123
1.535578 -0.3409116 -0.1930023 164 125 106
1.571972 -0.3318548 -0.2996365 222 190 172
1.468988 -0.3326055 -0.07751817 180 149 131
1.522543 -0.5015464 -0.3094324 90 56 41
1.438221 -0.3227625 0.06851653 205 174 156
1.405095 -0.5145462 -0.05793141 57 48 49
1.550553 -0.3500026 -0.2371054 197 153 131
1.533301 -0.3753106 -0.1750972 139 133 131
1.457547 -0.3439187 -0.05858075 65 60 57
1.383636 -0.4309559 0.04495902 164 125 98
1.43043 -0.5115821 -0.09964168 156 105 82
1.374654 -0.4396079 -0.0108376 131 125 115
1.383543 -0.4195823 0.009558134 148 125 115
1.579448 -0.3581259 -0.3334296 213 182 164
1.458494 -0.4097167 -0.08227405 57 44 32
1.359252 -0.4794676 0.004815011 197 165 139
1.559917 -0.4155942 -0.2640928 57 52 49
1.557883 -0.3563758 -0.2696694 205 182 164
1.405384 -0.3774 0.03807279 189 145 115
1.540239 -0.3509062 -0.212466 197 157 131
1.425374 -0.3286953 0.03131286 197 157 131
1.452606 -0.3543425 -0.05454911 98 93 90
1.412686 -0.3548352 0.02477174 131 85 65
1.676464 -0.06417729 -0.2543841 98 101 98
1.396769 -0.3573806 0.1177461 74 76 57
1.426245 -0.06532853 0.09250589 172 121 98
1.434858 -0.1085546 0.07475194 90 85 82
1.605886 -0.3524665 -0.3630227 205 161 139
1.537284 -0.5019839 -0.2667249 74 64 57
1.411892 -0.2797637 0.01438686 106 68 57
1.418754 -0.2147811 0.06530248 82 44 24
1.438846 -0.1654686 0.03504051 180 141 123
1.406443 -0.3109529 0.06212523 205 161 139
1.657989 -0.04905913 -0.2165669 106 93 90
1.39824 -0.2514876 0.1180349 156 97 82
1.421545 -0.1488422 0.1020335 205 161 139
1.494664 -0.2071523 -0.07504677 90 85 82
1.581541 -0.2516038 -0.2509907 197 157 131
1.406176 -0.3106013 0.08049662 213 174 164
1.493692 -0.3363533 -0.1299982 49 28 16
1.621165 -0.1363142 -0.2499659 205 161 131
1.436834 -0.1289943 0.05437198 98 105 82
1.603291 -0.3294181 -0.337807 197 161 139
1.562324 -0.3003556 -0.2283993 180 141 123
1.682956 -0.1110816 -0.3193342 213 182 156
1.428241 -0.1813042 0.07810296 115 97 82
1.410564 -0.27138 0.09030489 205 165 139
1.404052 -0.312553 0.03816849 205 161 139
1.546391 -0.4304909 -0.2898089 197 186 172
1.404813 -0.238085 0.1145174 205 161 139
1.418634 -0.2203881 0.0565894 172 129 115
1.382914 -0.4136723 0.02321083 180 145 131
1.495148 -0.198587 -0.09342819 57 36 32
1.618101 -0.2474033 -0.3075839 213 178 156
1.659226 -0.2167762 -0.3527382 197 157 131
1.438347 -0.1816839 0.0699533 74 72 49
1.544709 -0.03055089 -0.1429513 197 153 131
1.585647 -0.262357 -0.2755543 213 170 148
1.423206 -0.2322224 0.07305115 180 137 115
1.645667 -0.2106376 -0.3178887 222 186 164
1.391844 -0.4030619 0.1265182 90 68 57
1.488056 -0.30786 -0.1134501 156 109 82
1.456854 -0.4602251 -0.131669 180 129 106
1.42531 -0.1334288 0.07563642 139 117 106
1.517845 -0.5278032 -0.1962725 131 129 131
1.383408 -0.4060864 0.002606136 123 121 115
1.492087 -0.4793415 -0.2080338 180 153 148
1.542223 -0.4527423 -0.2746376 164 141 123
1.419992 -0.1915081 0.08989958 205 153 123
1.458024 -0.3110451 -0.05981225 74 72 74
1.447724 -0.3411845 -0.06369946 65 52 49
1.425236 -0.2561074 -0.002960647 98 89 90
1.417039 -0.2593775 0.02030111 205 170 148
1.570577 -0.2347781 -0.2174052 197 153 131
1.550449 -0.2033831 -0.1776896 213 165 139
1.587861 -0.1688605 -0.2218581 197 161 139
1.534788 -0.219252 -0.1655401 213 170 148
1.557822 -0.4281896 -0.3454722 238 222 205
1.526712 -0.1443115 -0.1519086 197 145 123
1.528588 -0.03274238 -0.1225809 164 125 98
1.541186 -0.04334518 -0.1248282 213 186 164
1.610003 -0.149163 -0.245725 205 153 123
1.422245 -0.1454334 0.1125781 115 44 24
1.436529 -0.1579328 0.08187877 172 153 139
1.497029 -0.1798654 -0.06260251 90 80 74
1.465907 -0.302775 -0.07510389 57 44 41
1.452759 -0.05743053 0.0197908 164 145 139
1.535414 -0.05435998 -0.1293744 213 190 180
1.599437 -0.2752336 -0.2953651 213 182 164
1.524072 -0.1079418 -0.126767 41 24 16
1.54871 -0.02943444 -0.1513906 197 145 115
1.499727 -0.03803293 -0.09829409 82 68 57
1.558404 -0.3429787 -0.2474356 213 174 148
1.51954 -0.1627062 -0.1235119 180 129 115
1.48774 -0.281631 -0.1002224 90 56 49
1.435711 -0.167021 0.05893197 41 28 24
1.447678 -0.2521488 -0.04137783 115 113 115
1.419556 -0.2343706 0.06468306 164 117 90
1.40633 -0.2921961 0.05444037 205 178 164
1.431177 -0.1703178 0.0663201 139 117 90
1.510785 -0.2987498 -0.155062 189 141 123
1.648863 -0.1685487 -0.3107706 213 178 156
1.405173 -0.29387 0.07560243 222 190 172
1.508273 -0.2738656 -0.1469175 197 149 123
1.398677 -0.4778627 -0.02473954 65 80 32
1.572073 -0.196842 -0.2143494 197 165 148
1.509603 -0.206517 -0.1297042 180 141 123
1.627737 -0.06732333 -0.2240592 205 178 164
1.567549 -0.3061628 -0.2514157 197 161 139
1.5019 -0.198851 -0.07874508 98 101 98
1.643085 -0.2097907 -0.3177764 222 182 164
1.583854 -0.2281846 -0.2479556 205 165 139
1.481137 -0.2321645 -0.03385528 164 149 148
1.413471 -0.2136682 0.0290913 180 149 139
1.448773 -0.278015 -0.05128388 49 48 49
1.448823 -0.2525099 -0.04126365 115 117 123
1.427407 -0.121125 0.09659355 197 157 131
1.501837 -0.5500872 -0.2311708 65 56 57
1.390419 -0.3986476 0.1083739 180 129 106
1.538182 -0.04488444 -0.04265655 115 113 82
1.488983 -0.168977 -0.08794226 65 40 32
1.536501 -0.05179985 -0.1266386 172 125 106
1.42595 -0.1396018 0.09783094 164 125 106
1.39012 -0.3839028 0.09684262 164 117 98
1.424788 -0.1306805 0.08369362 123 93 82
1.488295 -0.2829699 -0.08864731 90 56 49
1.401362 -0.3206739 -0.006800799 172 137 123
1.506077 -0.2749559 -0.1322753 180 133 98
1.410589 -0.2639977 0.07974356 197 141 115
1.488261 -0.14658 -0.07241067 65 52 49
1.437949 -0.09771457 0.1010559 172 149 131
1.520345 -0.1727217 -0.1494864 189 137 115
1.49413 -0.2084658 -0.09098592 82 60 49
1.425712 -0.1460259 0.08275922 131 97 90
1.509399 -0.1931462 -0.1310102 180 133 115
1.421606 -0.09487041 0.1154546 180 129 106
1.449408 -0.1289642 0.01987538 98 93 90
1.487996 -0.09324916 -0.007107708 41 24 24
1.644526 -0.1212547 -0.2745917 205 170 148
1.536113 -0.0447241 -0.02534601 82 85 49
1.338585 -0.487969 0.2587612 156 85 49
1.337076 -0.4893272 0.139321 131 76 57
1.313479 -0.530817 0.06765164 41 16 8
1.333152 -0.4822311 0.1305519 123 72 57
1.292535 -0.5485066 0.1366972 148 68 49
1.31263 -0.5256755 0.164884 180 109 65
1.314093 -0.5084795 0.156067 172 101 74
1.315635 -0.5096061 0.1737472 148 93 74
1.326858 -0.5268024 0.03442982 180 137 106
1.340203 -0.5371843 -0.014633 74 64 49
1.53418 -0.3684797 -0.2055462 238 190 148
1.334226 -0.503942 -0.004517424 189 161 139
1.471465 -0.3255827 0.06256134 238 190 148
1.546585 -0.390324 -0.2869269 222 182 148
1.560156 -0.4521649 -0.2431483 189 133 106
1.418811 -0.4777138 -0.09376476 230 157 115
1.500146 -0.3133719 -0.1022667 222 149 106
1.428584 -0.3351958 -0.01493006 172 117 98
1.404512 -0.5346525 -0.06336316 164 129 90
1.3308 -0.5157537 0.02843643 123 101 65
1.374085 -0.4357231 -0.00981201 205 178 148
1.390566 -0.4207958 0.05409631 180 133 98
1.367567 -0.4984757 0.07773664 189 165 139
1.387069 -0.4346702 0.06386811 180 141 106
1.429557 -0.4567472 -0.09916946 164 113 98
1.544948 -0.3582089 -0.2380483 131 93 74
1.402576 -0.3865866 0.03225382 180 145 131
1.503398 -0.3189294 -0.1155464 156 117 98
1.522034 -0.4574956 -0.2923722 98 68 49
1.542528 -0.4219592 -0.2859715 180 145 131
1.388577 -0.40145 0.008417335 156 117 98
1.391018 -0.3850632 0.01435108 65 60 57
1.360236 -0.4836537 0.03670594 98 44 32
1.418553 0.001529896 0.09028454 106 52 32
1.580767 -0.2903758 -0.2790578 172 137 115
1.494037 -0.4798262 -0.2388423 156 137 131
1.741019 0.0795798 -0.3343525 189 157 139
1.678046 -0.09963004 -0.311578 197 161 139
1.549767 -0.1210558 -0.1575957 189 129 106
1.542003 -0.4205565 -0.3234373 172 125 98
1.448714 0.3163832 -0.1196073 180 129 106
1.56045 0.0004272156 -0.1633818 180 129 98
1.770189 0.125213 -0.3900627 164 133 115
1.561536 -0.3985308 -0.2585982 123 121 115
1.534366 0.01691739 -0.1150532 32 12 0
1.319879 0.3408078 0.04602672 57 64 32
1.533914 0.2331734 -0.1622059 106 101 82
1.583264 -0.2786084 -0.2647706 205 170 139
1.584714 0.01737493 -0.1823789 180 137 115
1.430278 -0.5291969 -0.03934777 131 129 131
1.443142 -0.1878527 -0.02179387 213 198 189
1.257804 0.3993298 0.1183089 123 68 57
1.55983 -0.3069839 -0.2137232 189 149 123
1.291652 0.3787982 0.03913938 57 68 41
1.576044 -0.1106369 -0.1695041 205 165 148
1.397106 -0.3222773 0.1188184 139 101 74
1.583698 0.0353475 -0.1457529 123 109 98
1.724554 0.005875777 -0.3300935 98 68 57
1.526708 0.004430616 0.01740553 57 56 32
1.535421 -0.1830578 -0.1332277 65 36 16
1.569938 -0.2277151 -0.1933708 189 145 123
1.439337 -0.03865153 0.06779798 197 157 139
1.446454 -0.1685375 0.002783133 98 80 74
1.699278 -0.09932873 -0.3558433 197 178 164
1.725102 -0.02749749 -0.3615208 205 186 172
1.427206 -0.1486611 0.07425383 74 44 32
1.736432 0.08248334 -0.3495418 222 194 180
1.744035 -0.02330208 -0.3891471 222 202 189
1.605056 0.3411169 -0.2730938 172 137 115
1.235938 0.4315424 0.09743431 172 129 106
1.540283 0.01710563 -0.08664726 49 44 16
1.473153 -0.06416463 0.04249644 82 80 74
1.601238 -0.09503705 -0.211822 213 178 164
1.552906 -0.07086977 -0.1509338 197 149 123
1.551644 -0.3532122 -0.2748157 164 121 98
1.70906 0.2319243 -0.3281493 213 186 172
1.560136 -0.4665778 -0.1976505 90 68 65
1.510586 -0.2533642 -0.1252243 189 141 115
1.413603 -0.01194241 0.09271435 65 24 16
1.748965 0.05136969 -0.3710996 222 194 180
1.427963 -0.5248509 -0.1440255 180 133 115
1.574837 -0.2893914 -0.2369578 106 80 74
1.446281 -0.160708 -0.0005825336 90 64 49
1.497535 -0.1039271 -0.02592996 164 153 148
1.533581 0.04118303 -0.007429028 98 101 74
1.500519 0.0952371 -0.03487252 90 85 49
1.54142 0.001258165 -0.04384036 106 105 82
1.506406 -0.4694544 -0.2397656 164 149 148
1.590948 -0.2529037 -0.2614849 197 145 115
1.406889 0.003332093 0.1218137 197 145 123
1.53121 0.06328847 -0.01606975 98 105 82
1.548074 0.01077082 -0.1545632 189 125 90
1.533416 0.01379352 -0.112006 82 60 49
1.487749 -0.06531779 0.03267176 74 64 57
1.563839 0.1885489 -0.08676587 139 133 90
1.450203 -0.1728711 -0.03570263 230 222 213
1.48893 -0.2215997 -0.05368851 74 60 41
1.524466 0.4273812 -0.2352285 123 113 115
1.478754 -0.2224152 -0.06248558 82 72 65
1.656214 -0.193446 -0.337875 213 190 172
1.550036 -0.01448414 -0.1498753 172 117 90
1.723999 0.02270007 -0.3429997 213 178 156
1.751421 0.09398553 -0.3825529 197 174 156
1.543889 -0.4212281 -0.2409241 115 113 90
1.532644 0.2266699 -0.1277016 41 32 16
1.496132 -0.03456179 -0.08825706 49 48 41
1.499138 -0.5068402 -0.2897049 139 109 98
1.517733 0.2156624 0.02165055 123 121 74
1.426407 -0.1061914 0.1008148 164 137 115
1.670051 -0.03482598 -0.214644 106 97 98
1.537776 -0.004495425 -0.06023298 41 36 24
1.451554 -0.2733546 -0.03275837 90 89 90
1.420961 0.3013605 0.002960206 156 113 90
1.69904 0.2159531 -0.3168733 197 161 139
1.503931 -0.140594 -0.01350148 90 80 74
1.463927 -0.2473692 -0.04868958 57 52 49
1.716633 0.4163744 -0.3857788 164 145 131
1.671153 0.2032587 -0.2757691 172 137 115
1.749499 0.009836538 -0.3040275 57 52 49
1.430226 -0.4634047 -0.07011151 65 64 57
1.299952 0.3125839 0.06316396 164 101 82
1.511936 -0.4327558 -0.2483483 156 121 98
1.429849 -0.08115134 0.07687232 57 48 49
1.389308 0.1362266 0.07004116 90 36 24
1.539571 0.01069649 -0.05160368 24 24 8
1.751795 0.184071 -0.35176 115 93 90
1.302171 0.3020779 0.08398095 156 105 82
1.554232 -0.455122 -0.2147283 139 133 139
1.592916 0.01378023 -0.1962457 197 153 131
1.421906 -0.07345941 0.09486032 189 137 115
1.68172 -0.05811568 -0.2352298 156 145 156
1.389141 -0.3491129 0.0005031597 164 129 115
1.746707 0.01702053 -0.3128287 139 133 139
1.644856 0.2080314 -0.2570633 57 28 16
1.607585 -0.1860097 -0.240215 213 182 164
1.678959 -0.02437904 -0.2414378 49 52 49
1.709188 0.0308773 -0.2979316 164 137 123
1.547741 0.4199389 -0.1931261 74 72 74
1.429756 0.002827733 0.04687824 156 105 90
1.396599 -0.3294558 -0.0003084851 172 125 106
1.430159 -0.4430515 -0.07411195 90 60 49
1.417991 -0.2532266 0.06936879 205 161 148
1.629861 0.3184877 -0.3026775 230 149 106
1.288594 0.3836469 0.06220661 115 105 65
1.293494 0.3744413 0.05895297 82 68 41
1.367081 0.2413465 0.06358094 222 161 123
1.496994 0.2678228 -0.1765188 115 56 24
1.53136 0.2305478 -0.07639611 74 52 24
1.600563 0.3314509 -0.2764147 230 182 139
1.696295 0.2950934 -0.3544895 238 194 148
1.69972 0.3219773 -0.3685379 246 206 164
1.498493 0.2674519 -0.1348987 213 157 123
1.710255 0.4171322 -0.3590931 139 117 106
1.694752 0.4342236 -0.3730807 189 149 115
1.698837 0.6548082 -0.1297041 106 48 24
1.718621 0.4029733 -0.3649758 213 194 172
1.246795 0.4108071 0.1203527 189 125 98
1.276622 0.3968728 0.04829472 205 149 106
1.295719 0.30865 0.1086063 189 113 82
1.282589 0.3519567 0.06454913 197 109 74
1.28219 0.3359207 0.09613263 213 137 90
1.415417 0.3298831 -0.03897981 65 56 16
1.54306 0.2345887 -0.1184172 49 28 16
1.68128 0.33281 -0.3748173 238 194 156
1.778181 0.6147074 -0.2552476 246 206 156
1.257238 0.4314891 0.0598211 98 85 41
1.697262 0.3735434 -0.3642726 230 198 180
1.295554 0.2812308 0.1747884 156 76 41
1.282888 0.307242 0.157113 205 137 90
1.448997 0.244526 0.05616003 156 145 65
1.427139 0.3023111 -0.05521737 82 64 24
1.664267 0.2066995 -0.3130617 246 202 164
1.56485 0.3400593 -0.2636115 222 174 139
1.226261 0.3908352 0.1372694 164 93 65
1.567454 0.4173622 -0.2924624 205 149 115
1.692332 0.4255027 -0.3837624 222 174 131
1.224672 0.3934645 0.1349472 213 129 90
1.28346 0.3278148 0.09138773 139 76 41
1.378024 0.1961484 0.1306366 222 141 98
1.590694 0.2541245 -0.2623375 230 174 139
1.376696 0.1991115 0.1473646 213 141 106
1.264038 0.3221776 0.1681788 213 145 106
1.528249 0.2465027 -0.1896493 213 149 115
1.348166 0.2244312 0.1099843 222 137 98
1.487331 0.2589895 -0.1753741 123 56 32
1.683576 0.4389461 -0.341235 205 161 139
1.413358 -0.7589285 -0.2046944 49 36 0
1.452417 -0.6940238 -0.2316936 98 72 24
1.158278 -0.9036174 0.1422309 82 36 24
1.370164 -0.7733532 -0.314791 180 117 74
1.313851 -0.6437103 -0.0299326 172 137 98
1.223083 -1.033654 -0.2962293 156 101 57
1.377464 -0.9119285 -0.05434779 41 24 16
1.103983 -1.052647 -0.01446765 90 72 32
1.243586 -0.7127329 0.09911992 172 89 57
1.186502 -0.8695656 0.141904 205 161 115
1.253523 -0.682456 0.09080663 172 93 57
1.392884 -0.7129803 -0.2810181 82 40 24
1.377674 -0.9225949 -0.3816181 65 48 32
1.326381 -0.666409 -0.0732469 172 93 57
1.451308 -0.6857567 -0.3309584 197 137 98
1.399502 -0.7189316 -0.2483162 24 16 0
1.280638 -0.9580054 -0.2144399 115 52 16
1.191024 -1.113575 -0.2710419 49 24 8
1.216969 -0.8180969 0.1046858 156 93 65
1.25095 -0.7541625 0.05824977 74 32 16
1.151807 -0.9121257 0.1201604 213 178 148
1.226134 -1.158558 -0.3543812 49 28 16
1.193527 -1.31035 -0.3147339 41 24 16
1.288097 -0.8151481 0.04320682 65 44 41
1.269298 -0.9582235 -0.179484 156 93 57
1.21584 -0.8049966 0.08119782 131 105 74
1.310006 -0.4988508 0.1150503 148 85 57
1.373908 -0.663294 -0.1398425 205 125 82
1.132906 -1.013321 -0.1782726 189 121 90
1.381879 -0.7806146 -0.3026394 164 105 65
1.078966 -1.091045 -0.09707557 180 117 82
1.244023 -0.752438 0.08691683 131 72 32
1.415517 -0.705234 -0.2875747 139 89 57
1.248993 -0.7114263 0.1042722 98 32 16
1.3629 -0.9017948 -0.1235609 156 137 123
1.255159 -0.6224021 0.1039087 49 12 0
1.201674 -0.8423381 0.1230532 82 64 49
1.370851 -0.8108698 -0.2349721 106 68 49
1.368969 -0.8936489 -0.06916971 57 28 16
1.325351 -0.9869319 -0.09443814 139 109 74
1.314998 -0.9297138 -0.1817379 41 36 16
1.125579 -1.041231 -0.073001 222 182 148
1.243119 -0.6750594 0.1050678 148 93 65
1.245155 -0.7430417 0.04165849 156 101 65
1.318684 -0.4898648 0.1387319 164 93 57
1.415222 -0.6391078 -0.2243302 164 101 65
1.276986 -0.7361118 0.01273392 65 52 24
1.341622 -0.7447898 -0.1276827 49 16 8
1.153317 -0.919463 0.0770475 180 141 106
1.147637 -1.000606 -0.05221147 205 133 82
1.317171 -0.9895821 -0.1032318 115 93 57
1.374522 -0.9451829 -0.05955363 65 36 16
1.45562 -0.7386945 -0.4062051 123 56 32
1.426097 -0.7792791 -0.2096254 65 48 8
1.316329 -0.8465224 -0.1987042 41 24 16
1.131508 -0.9328672 0.0953877 172 153 148
1.286035 -0.5373775 0.1238262 106 68 41
1.181909 -0.8868547 0.1337729 164 105 82
1.241927 -0.8571388 0.0479084 65 40 8
1.194174 -1.111521 -0.3495272 82 68 57
1.300609 -0.9270287 -0.2000119 156 129 115
1.471739 -0.7279778 -0.4062352 131 64 41
1.368405 -0.8317866 -0.2399602 98 64 49
1.432381 -0.7728448 -0.3988681 131 60 32
1.414494 -0.7608607 -0.1963139 98 80 32
1.268747 -1.147435 -0.2676476 90 48 41
1.388433 -0.7422857 -0.3166127 156 93 57
1.2843 -0.5469238 0.08982264 156 97 57
1.208315 -1.196563 -0.2530566 49 40 32
1.303823 -0.5450243 0.1309719 82 64 24
1.185065 -0.873319 0.1396201 148 109 82
1.236327 -0.872341 0.03867134 74 52 24
1.20738 -0.8413233 0.09852142 57 32 16
1.122321 -1.038669 -0.09445725 164 117 82
1.256856 -0.9698182 -0.1797966 197 137 98
1.419445 -0.7139386 -0.3212699 180 125 90
1.263491 -0.587404 0.100412 74 20 8
1.422526 -0.6731057 -0.2931912 172 113 74
1.424557 -0.6879023 -0.2384213 65 44 24
1.339608 -0.8492036 -0.1608587 57 24 16
1.427827 -0.6829699 -0.236625 172 121 74
1.352065 -0.8622299 -0.2597045 180 129 98
1.266597 -0.676342 0.01037415 82 56 16
1.353692 -0.9634153 -0.09583321 74 48 24
1.243238 -0.9455312 -0.1632898 189 125 90
1.259242 -0.6793107 0.03698256 148 117 82
1.41163 -0.7838755 -0.204344 57 44 16
1.247761 -1.155428 -0.40777 90 64 41
1.378539 -0.6580269 -0.1543444 213 133 74
1.42554 -0.7276155 -0.2170605 49 24 0
1.201167 -0.8725535 0.0558838 180 117 65
1.220716 -0.8118679 0.1286675 148 153 172
1.243969 -0.7160733 0.1075741 148 93 74
1.361687 -0.5810909 -0.05753186 148 85 57
1.307116 -0.5837296 -0.03780345 90 60 49
1.237559 -0.902522 -0.03378599 74 52 49
1.129295 -1.025564 -0.09931402 115 64 32
1.383521 -0.9635369 -0.08341416 148 80 49
1.27619 -0.9954259 -0.2670416 115 85 65
1.342756 -0.9692011 -0.1400312 90 72 32
1.414047 -0.7458014 -0.2194899 57 28 8
1.342293 -0.6765105 -0.09291168 156 101 82
1.323144 -0.5003073 0.1921771 131 72 57
1.269573 -0.9747468 -0.2533263 164 113 90
1.419505 -0.7044094 -0.3261221 180 109 74
1.318135 -0.9856038 -0.1256832 90 72 32
1.243271 -0.8757415 0.01634801 98 48 32
1.25753 -0.6859328 0.01534602 172 125 98
1.254318 -0.6678944 0.09663917 139 68 41
1.266387 -0.7619919 0.05515683 139 93 65
1.433578 -0.702906 -0.2269287 32 20 0
1.223601 -0.9448557 -0.131441 49 20 8
1.263853 -0.6125518 0.1115115 106 44 24
1.403459 -0.7474414 -0.2447426 41 20 16
1.209489 -0.9088036 0.02889825 213 145 90
1.286784 -0.7308306 0.006330293 49 36 16
1.357193 -0.6884807 -0.0760868 180 105 65
1.247262 -0.7004957 0.09807728 49 12 8
1.291996 -0.9245262 -0.2645325 139 109 82
1.132131 -0.9535068 0.02898111 205 125 82
1.207966 -1.159621 -0.1649604 65 40 24
1.240441 -0.7484516 0.08555236 197 149 123
1.241423 -0.5197505 0.0436217 197 133 98
1.231905 -1.215302 -0.4022885 82 72 49
1.233691 -0.9508099 -0.1701696 189 129 82
1.24544 -0.659613 0.1157229 148 85 57
1.181235 -0.8576343 0.1784656 82 52 49
1.245757 -0.7326316 0.1098857 115 56 32
1.390011 -0.623955 -0.1499694 172 101 65
1.231686 -0.8986155 0.01691174 230 157 106
1.243619 -0.7621137 0.08366568 172 141 106
1.290759 -0.578298 -0.01601711 24 12 8
1.181081 -1.167735 -0.16995 189 121 82
1.377296 -0.8029903 -0.1972924 115 89 49
1.23886 -0.7464969 0.1126942 98 32 16
1.38467 -0.8390775 -0.2447306 148 109 90
1.142687 -0.9263771 0.09646986 82 40 8
1.002888 -1.142665 -0.1663072 156 109 74
1.036327 -1.07791 -0.02611692 24 20 0
0.9870181 -1.144036 -0.0458689 90 72 32
1.06351 -1.050874 -0.01396115 32 24 8
1.05807 -1.04336 -0.04077795 57 40 8
1.198118 -1.226015 -0.2356286 74 60 57
1.044884 -1.064206 -0.003087836 57 52 16
1.042349 -1.076336 -0.09099673 255 218 189
1.195126 -1.272538 -0.4163519 41 28 24
1.053524 -1.050669 -0.03249104 49 36 16
1.002555 -1.093244 -0.05607886 74 60 24
0.9631212 -1.114361 -0.03461342 123 105 82
0.9986848 -1.096923 -0.008442516 189 202 213
1.227313 -1.263454 -0.3591158 148 141 90
1.01147 -1.096696 -0.02707791 123 129 65
1.025617 -1.09111 -0.103197 255 230 205
0.9948018 -1.091129 0.003576871 197 206 222
1.059445 -1.045898 -0.04474061 115 109 32
1.001763 -1.106235 -0.02451845 246 206 180
0.9998185 -1.027639 0.0277461 205 210 230
1.211975 -1.28471 -0.3597941 57 52 8
1.028316 -1.074996 -0.03611923 98 85 41
1.01846 -1.075845 0.004904461 65 72 41
0.9997396 -1.038209 0.02504694 180 186 205
1.021157 -1.09841 -0.09714237 222 182 139
1.005883 -1.03153 0.01536365 205 210 230
1.00822 -1.083479 0.007591687 98 97 57
1.005693 -1.11569 -0.0950098 238 206 164
1.032078 -1.072397 -0.001881257 115 117 49
1.045712 -1.076959 -0.0676306 205 170 139
1.21262 -1.264593 -0.3472356 139 129 57
1.204886 -0.9526107 -0.09247161 172 133 106
1.180519 -0.959458 0.05493902 246 210 180
1.223217 -0.9373935 -0.05789874 106 60 32
1.191574 -1.204652 -0.3782613 65 40 24
1.238326 -0.9494378 -0.2758978 139 80 65
1.214846 -1.035179 -0.383864 189 129 90
1.135805 -0.9735593 0.06356755 246 198 156
1.123684 -0.9655184 -0.1481374 131 89 65
1.248808 -0.9548008 -0.2344049 205 157 82
1.033297 -1.092641 -0.1186199 238 190 139
1.014758 -1.028342 0.02993482 197 202 222
1.196702 -0.9801844 0.0970734 156 93 49
1.249742 -0.9678592 -0.3122717 205 149 115
1.099407 -1.005013 -0.03175214 205 141 115
1.237115 -0.9519245 0.05172756 213 145 115
1.189499 -1.191182 -0.1851734 82 40 41
1.2023 -0.9776111 0.09895471 164 109 74
1.159588 -0.9759766 -0.03112181 164 93 49
1.256799 -0.9856268 -0.2841924 90 44 16
1.191678 -0.940319 -0.03210888 238 178 131
1.274163 -1.006146 -0.2678553 65 40 16
1.166371 -0.970001 -0.02706761 230 149 106
1.158413 -0.9862868 -0.09359259 246 194 148
1.152098 -0.9971153 -0.1514927 180 145 115
1.142323 -1.003814 -0.1451613 213 178 148
1.200009 -1.306114 -0.3490585 98 80 41
1.286799 -1.013773 -0.2613409 57 40 16
1.074392 -1.024178 -0.03906905 197 161 123
1.279123 -1.037744 -0.2466431 164 141 65
1.11893 -0.9988987 -0.007903474 230 178 131
1.274996 -1.027043 -0.2546754 74 56 16
1.039957 -1.072837 -0.02931793 65 40 16
1.170257 -0.976936 -0.08134044 156 125 106
1.242047 -0.9537749 -0.1512396 148 60 24
1.11307 -1.017704 -0.1218431 255 218 180
1.184903 -0.943965 -0.01133486 230 182 148
1.148741 -0.9996465 -0.1396663 213 186 148
1.11854 -1.014856 -0.1271848 238 198 156
1.203759 -0.9556297 -0.07982536 213 186 164
1.078061 -1.019473 -0.0125417 222 178 148
1.199252 -0.9866912 -0.1604589 189 141 115
1.178666 -1.039028 -0.1923813 255 222 180
1.166411 -0.9665677 0.0286241 148 113 82
1.123302 -1.01554 -0.07707366 255 238 205
1.125527 -0.9885139 -0.05712121 255 234 213
1.149699 -0.9704204 0.005168703 246 194 139
0.9612206 -1.117953 -0.02890366 131 121 106
1.021899 -1.100301 -0.06859845 238 206 180
1.145802 -0.9311205 0.06308631 238 202 164
1.139648 -1.000783 -0.07976744 255 222 189
1.175647 -0.9168838 0.03193779 156 109 82
1.151979 -0.991814 -0.07924653 205 165 131
1.19846 -0.9368946 0.01781977 255 206 164
1.081133 -1.036076 -0.1195119 238 186 139
1.269111 -1.045358 -0.2429228 65 52 8
