ply
format ascii 1.0
element vertex 1228
property float x
property float y
property float z
property uchar red
property uchar green
property uchar blue
end_header
2.921528 0.06604029 -0.3536206 65 32 0
2.970991 0.1417671 -0.384346 65 28 0
2.696934 -0.034323 -1.058513 82 44 0
2.754838 -0.1833966 -1.058564 74 40 0
2.739908 -0.03217411 -0.3355885 82 40 0
2.963076 0.2244855 -0.2380431 90 48 0
2.844995 0.0964199 -0.1169924 82 40 0
2.839831 0.1148691 -0.684888 82 48 16
2.738503 0.03784122 -0.2740599 106 60 16
2.926603 0.07040697 -0.6657361 82 48 16
2.942309 0.242537 -0.3379078 65 32 0
2.865192 0.117465 -0.8929866 65 32 0
3.119828 0.5907018 -0.1555651 65 12 0
2.733815 0.01123173 -0.1769588 49 8 0
3.02642 0.08920472 -0.2582554 90 44 0
2.60344 1.364681 -1.541261 24 8 0
2.563298 0.7856621 -1.860176 115 56 0
2.34318 1.836763 -1.237716 32 8 0
2.672259 0.435366 -1.857213 82 32 0
2.176941 1.395625 -1.820349 139 60 0
2.224007 0.7636011 -1.190048 32 0 0
2.264017 1.587921 -1.250122 24 4 0
1.790975 1.201972 -1.87209 57 32 8
2.76703 0.06590127 -0.6634954 90 48 0
2.563862 0.7058502 -1.888958 90 40 0
2.867769 0.3970372 -1.914962 74 32 0
2.961196 0.3263192 -0.450892 98 56 16
2.963478 0.145151 -0.3085369 74 40 0
2.769259 1.367772 -0.6050031 32 24 0
2.669469 -0.008374979 -1.692589 82 48 16
2.622546 0.05847716 -1.915323 90 36 0
2.99079 0.07170304 -0.5167671 65 32 0
2.805343 0.09499113 -0.7671875 65 36 0
2.087581 0.7077345 -1.850608 164 85 0
1.262843 1.81916 -0.572977 74 4 0
2.521493 0.1759326 -1.849548 115 60 0
2.681453 -0.177513 -1.937142 90 40 0
3.002738 0.02735299 0.7199097 139 85 24
2.87801 -0.3343973 0.7268121 98 56 16
2.796128 -0.1612604 -0.1025224 74 36 0
2.967882 0.02956743 -0.07551412 106 60 16
3.116835 0.6002214 0.5639253 131 64 8
3.095711 0.6786751 0.3998538 131 52 0
3.104106 0.6563075 0.6475256 106 48 0
2.869371 0.0514157 0.2519393 148 93 41
2.85388 0.0660615 -0.07541911 74 24 0
2.843316 0.01417335 0.1351378 106 52 0
2.850097 0.06411794 0.001713237 90 44 0
2.886047 -0.4096398 0.0236091 115 52 0
2.971986 0.05820677 0.1971593 131 76 24
2.921325 0.0653796 0.5908282 65 36 0
2.801925 -0.0210259 0.04274439 131 80 24
2.854648 0.002624045 0.5780948 106 56 16
2.834158 0.03738838 0.0745637 139 85 24
2.898634 0.2759949 -0.09817962 82 48 0
2.733344 -0.7529107 0.2787988 230 129 8
2.951752 0.3421118 0.1499645 90 40 0
2.928081 0.2961843 0.1933468 98 52 0
2.961481 0.3407615 0.1630616 106 64 24
2.883564 0.08778053 0.06667431 82 44 0
2.845946 -0.2321714 0.6134467 131 76 24
2.812599 0.01628023 0.6045337 156 97 41
2.911769 0.2943826 0.2073471 148 93 41
2.950545 -0.7052055 0.2489407 57 20 0
2.907335 -0.4456536 0.05677499 74 40 0
2.933767 0.2736142 -0.06297389 115 68 16
2.839302 0.06533727 0.1188824 106 52 0
2.934022 0.2515844 0.02926985 131 76 24
2.989351 0.3674479 0.5744014 90 56 24
2.984039 0.07069582 0.1189207 90 44 0
2.734789 0.008757364 -0.03757921 90 40 0
2.853632 0.05297211 0.3207301 115 64 24
2.912507 -0.6997781 0.0378984 90 36 0
2.897214 0.03754328 0.4891411 139 85 24
2.938822 0.3055881 0.5330592 131 72 16
2.986535 0.08676694 0.4774754 106 60 8
2.912486 0.2817436 -0.009448113 90 36 0
2.852776 0.05072966 0.1787422 115 60 8
2.926226 -0.7230649 0.2466962 65 24 0
2.874245 0.08472377 0.1407327 106 68 24
2.854053 0.08791185 0.05338734 90 52 8
2.810639 -0.106277 0.302665 139 97 49
2.997592 0.2910294 0.6553008 156 97 41
2.958112 -0.0537787 0.7099992 106 56 8
2.841709 0.5955075 -0.6626074 57 40 8
2.936531 0.3491343 -0.2229625 115 72 16
2.955538 0.07471728 -0.171794 115 68 16
2.79606 0.1142576 -0.3008294 65 24 0
2.953845 0.1571837 -0.5807941 57 20 0
2.935388 0.04616012 -0.08514538 65 32 0
2.814706 0.1064962 -0.4312018 65 32 0
3.110202 0.6335509 0.4434852 131 60 0
2.754169 0.02434873 -1.034944 57 24 0
2.843977 0.009027329 0.2194741 131 76 24
2.82927 1.548204 -0.4356765 16 28 57
2.856379 0.01866522 0.2259289 115 64 8
2.772098 -0.1080169 -0.02622162 65 24 0
2.927957 0.2966468 -0.05333817 90 48 0
2.989187 0.3127362 0.7072864 139 85 32
2.987099 0.2946076 0.6841522 148 89 32
2.902075 -0.7345005 0.4997571 49 8 0
2.947917 0.2872211 0.4968964 172 105 41
2.82818 -0.01906955 -0.01552913 90 44 0
3.113944 0.6550969 0.5355371 131 64 8
2.957199 0.2252319 0.6731361 123 68 8
3.017904 0.03839933 -0.2286692 90 44 8
2.843467 -0.2077498 0.1838506 106 68 24
2.301177 1.400766 -1.174479 49 12 0
2.237229 1.334059 -1.170341 49 16 0
2.401491 1.563831 -1.165117 57 24 0
2.417356 1.589428 -1.155293 49 24 0
2.754378 0.102131 -0.5332845 98 60 16
2.720895 -0.0219359 -1.531311 57 24 0
2.94661 0.203037 -0.08306174 106 64 8
2.82441 0.1289576 -0.6017675 57 24 8
2.651062 1.416107 -0.604543 49 20 0
2.901714 0.3821324 0.1516907 98 64 16
2.854925 -0.293367 -0.07885501 115 68 24
2.874937 -0.01683816 0.296136 156 93 41
2.979576 0.06148455 0.35206 139 89 41
2.973335 0.2127552 0.4024519 172 109 49
2.884249 0.04041987 0.3130405 139 85 24
2.986765 -0.7752046 -2.256347 90 40 0
2.701249 -0.05819599 -1.47881 74 32 0
2.806899 0.01243213 -0.1621118 131 76 24
2.975156 0.2895312 0.8210536 106 56 8
3.009699 0.07872307 0.8706816 82 40 0
2.738933 -0.7050036 1.017683 123 68 16
2.98913 0.3444175 1.009331 131 76 16
2.97917 0.2758295 1.015907 148 85 24
2.968789 0.2518854 0.9794854 156 101 41
2.948215 0.066711 1.044202 115 60 16
2.973099 0.2797336 1.041641 156 93 24
2.977156 0.3233626 0.9367114 148 85 24
2.983671 0.308204 1.065957 90 36 0
2.976023 0.3118176 1.011497 123 60 16
2.894122 -0.6501081 1.113812 74 36 0
2.977888 0.3916778 1.094688 106 52 0
2.721336 -0.79767 0.8605638 148 76 8
2.821183 -0.5351102 -0.009561652 82 32 0
2.701547 -0.8996108 0.3708889 205 109 0
2.821038 -0.006499745 0.3647718 131 80 32
2.969717 0.1003008 -0.10749 98 56 8
2.82975 -0.7343803 0.9421659 90 32 0
2.846101 -0.6468902 0.3174913 57 24 0
2.722098 0.08193295 -0.8031728 74 32 0
2.979642 0.2898097 -0.7235191 90 52 0
2.694361 -0.02899118 -1.094338 74 44 0
2.897263 0.05673327 -1.028294 65 32 0
2.941362 0.3061246 -0.784687 74 40 0
2.954129 0.1009049 -0.3757968 65 36 0
2.960689 0.2851113 -0.2772864 90 44 0
2.72199 -0.05584633 -0.8699113 32 4 0
2.638474 -0.8498685 0.2252085 172 89 8
2.926421 0.331499 0.2283951 82 36 0
2.756462 -0.0002607926 -0.8459091 106 64 16
2.980694 0.3228848 0.8520434 131 76 24
2.82853 -0.6766304 0.4417618 90 36 0
2.658933 -0.8763832 0.2100795 148 68 0
2.799402 0.06327398 -0.8953354 57 24 0
2.822175 0.06335635 -0.9361193 49 16 0
2.944558 0.02968896 -1.06363 32 4 0
2.906197 0.03059685 -0.988772 57 24 0
2.76083 0.005456037 -0.6197717 98 56 16
2.681672 -0.9466772 0.2458401 148 64 0
2.928973 -0.6629464 -0.305328 57 16 8
2.915245 0.04807076 -0.6872234 74 44 8
2.855655 0.1062753 -0.3811679 65 32 0
2.948682 0.09327508 0.09569789 123 76 32
2.734306 -0.8055935 0.4756153 189 101 0
2.890735 0.1242485 0.4581622 139 89 41
2.857392 0.1107315 0.466613 148 97 41
2.820916 -0.6596766 0.2499277 65 20 0
2.851582 0.007849783 0.5102526 106 60 16
2.813538 0.02912146 -0.1445907 131 80 32
2.882596 0.002855747 0.3618709 131 76 24
2.864321 -0.7137837 0.8135037 90 40 8
1.870306 -0.3582558 -0.2247098 49 24 0
1.522678 -1.086712 -0.5530961 90 40 8
1.766936 -0.256224 -1.319444 74 24 0
1.362249 -0.5983944 -1.390846 123 60 8
1.436637 -0.2171399 -0.1764107 106 52 0
2.179394 -0.3066936 -0.2097434 65 28 8
1.416171 -0.5685133 -0.7639768 65 12 0
1.50338 -0.1826233 -0.6996654 65 8 0
2.927855 0.06756156 -0.9442086 82 44 8
1.835304 -0.3585317 -0.1960475 106 44 16
0.9955361 1.926246 -0.7958829 98 28 0
1.2617 1.749791 -0.5826013 57 0 0
0.9681611 1.943922 -0.8016098 98 32 0
1.167261 1.996391 -0.801806 98 24 8
0.9185077 1.933901 -0.792062 82 24 0
1.276793 1.965492 -0.5836516 98 20 0
1.002442 1.960723 -0.7943086 98 32 0
1.179305 1.555752 -0.5829723 57 0 0
1.129341 1.46182 -0.6005857 65 0 0
1.12619 1.44874 -0.6479933 90 0 0
2.044747 -0.310864 -0.195313 90 36 0
1.125569 1.474619 -0.604656 90 0 0
1.64401 -0.2594638 -0.5308988 49 0 0
0.8929048 1.247152 -0.8099494 90 40 16
2.167005 -0.4164838 -0.2174867 82 36 0
1.534123 -0.2884159 -0.005760857 123 56 24
2.788521 -0.2101956 -0.7388929 82 48 8
1.482451 -0.2222795 -0.3931433 90 36 0
1.092029 1.426226 -0.6524528 106 8 0
1.397614 -0.3948027 -1.058794 90 24 8
1.238638 1.711726 -0.6115642 82 8 0
1.480966 -0.1910356 0.02826468 123 56 32
1.67532 -0.3223027 0.507079 156 76 16
1.420366 -0.3679093 -0.1131521 82 20 0
0.767777 2.174599 0.7082455 98 64 32
0.6027196 2.203786 0.6923894 189 117 0
0.8399706 2.366893 0.444962 139 113 90
1.25038 1.758561 -0.5609578 49 0 0
0.5505777 1.269083 -0.7912314 123 44 8
0.4384038 1.462753 -0.5446764 32 4 0
0.4836501 1.641437 -0.8296664 74 24 16
0.4205736 1.470158 -0.7488195 57 20 0
0.8933536 1.802665 -0.8011251 115 60 32
0.3765519 1.520922 -0.8704355 98 32 0
0.3015939 1.616708 -0.7529904 24 0 0
0.521019 1.662945 -0.6876299 189 157 139
1.138895 1.541873 -0.871971 156 80 0
0.4040672 1.557948 -0.8817613 74 24 0
0.4791287 1.575227 -0.6581843 164 141 82
0.3886536 1.523412 -0.7609844 180 145 106
0.4754905 1.637089 -0.742988 106 72 41
0.4097424 1.578927 -0.7529315 189 141 82
0.7906646 1.857587 -0.7853445 49 0 0
0.7878117 1.760097 -0.7885385 98 40 16
0.8620803 1.872375 -0.7938197 82 28 8
0.810439 1.537933 -0.7909316 123 60 32
0.8655219 1.913106 -0.7963166 57 8 0
0.824374 1.813854 -0.799182 82 32 16
0.9450092 1.864094 -0.7838554 82 20 0
0.6557765 1.835187 -0.805313 82 32 8
0.9018579 1.882721 -0.7979217 57 4 0
0.8685876 1.851167 -0.8019258 57 0 0
1.089596 1.739636 -0.8109851 82 16 8
0.9619505 1.818459 -0.7989578 98 32 16
0.6612918 1.816884 -0.8055162 65 12 0
0.4847441 2.024899 0.5090709 255 255 255
0.9084666 2.265953 0.5044269 205 186 139
0.742803 2.155233 0.6988993 139 97 32
0.8419699 2.136971 0.4528852 255 255 255
0.6965351 1.958525 0.6963303 164 113 41
0.4938842 2.404505 0.5021448 255 255 255
-1.652921 -7.02889 -1.028604 164 101 32
-1.986088 -6.938226 -1.01862 82 36 0
-1.820159 -6.986214 -1.002119 164 97 41
-0.7838427 -7.24673 -0.8892576 82 40 0
-2.911921 -6.700446 -1.140723 189 117 41
-2.157055 -6.899148 -1.121958 180 121 49
-1.293582 -7.143998 -1.757853 131 89 49
-2.91685 -6.696974 -1.34994 172 117 49
-0.4970964 -7.309665 -1.518853 164 101 41
-0.9928747 -7.184196 -1.409773 106 64 0
-0.9940076 -7.183162 -1.19672 106 60 0
-1.22113 -7.12218 -1.066069 131 68 8
-2.727267 -6.751899 -1.463452 180 117 57
-3.924825 -6.773702 -1.334787 65 20 0
-3.118967 -6.650365 -1.003475 82 44 0
-2.848111 -6.999558 0.146213 213 129 82
-2.634124 -7.291707 0.1271616 98 36 0
-0.8661548 -7.445749 0.03512485 172 93 57
-1.872134 -6.924234 -0.7310559 98 44 0
-2.081012 -6.876297 -0.209789 131 56 0
-2.295585 -6.834425 -0.48734 115 68 0
-2.131358 -6.863022 -0.3685403 205 125 41
-1.845845 -6.919069 -0.4010202 189 121 41
-2.565384 -6.77741 -0.5759254 106 64 0
-2.476616 -6.771075 -0.3946249 123 68 0
-1.806296 -6.861187 -0.09256809 123 52 8
-0.8168218 -7.206013 -0.6779558 98 52 0
-0.5651311 -7.246915 -0.5603865 123 76 0
-0.9936782 -7.141262 -0.3206019 106 52 0
-0.8521907 -7.175193 -0.5091658 131 72 0
-2.112976 -6.88995 -0.9761117 98 44 0
-1.169942 -7.095429 -0.4966836 189 125 49
-1.076594 -7.108955 -0.3857078 131 76 0
-1.066754 -7.118471 -0.3170625 115 64 0
-1.518202 -7.01234 -0.2451707 115 40 0
-1.780068 -6.99483 -1.119822 82 36 0
-2.230502 -6.838145 -0.2211037 123 56 8
-1.222558 -7.710276 0.1518072 180 97 16
-2.45701 -6.816276 -1.109288 197 121 49
-3.562854 -6.809576 -0.6607509 98 68 24
-1.716573 -6.995318 -0.2631189 106 28 0
-0.5136051 -7.301356 -1.379463 106 60 0
-0.935326 -7.144775 -0.3887094 189 121 41
-0.6457326 -7.222516 -0.4863007 197 125 57
-1.040781 -7.169067 -0.5613592 90 44 0
-1.742718 -7.550018 0.3111259 65 32 0
-1.770172 -7.576404 0.2500207 98 60 16
-3.038149 -7.214406 0.4090673 189 89 49
-2.318671 -7.381773 0.3377694 74 48 0
-1.69777 -7.587152 0.2372653 74 32 0
-2.006341 -7.469943 0.546748 90 48 0
-2.334812 -7.341466 0.7630612 148 93 16
-2.027406 -7.432087 0.7478493 164 105 24
-1.69679 -7.520504 0.5864643 82 44 0
-1.7811 -7.514593 0.3515005 65 32 0
-2.012588 -7.452633 0.5897476 123 80 16
-2.479832 -7.344657 0.1773798 123 68 8
-2.592073 -7.290542 0.2724359 98 44 0
-1.775398 -7.483235 0.8365583 106 48 0
-0.4968424 -7.824403 0.4025648 213 113 57
-1.466998 -7.621121 0.2802011 82 52 0
-1.893242 -7.535521 0.2451658 82 48 0
-1.486894 -7.587424 0.3740372 115 68 8
-1.348905 -7.589716 0.439646 115 64 8
-2.078966 -7.538714 0.268588 74 40 0
-2.640017 -6.778131 -0.6489822 172 109 32
-1.690039 -6.958863 -0.6462256 189 125 49
-2.533026 -6.778071 -0.2120574 90 24 0
-2.567022 -6.777308 -0.5912551 90 40 0
-2.389665 -7.302869 0.9438044 98 36 0
-3.489741 -6.82818 -0.6640013 115 80 32
-3.114057 -6.620575 -0.7152321 197 129 57
-0.1063661 -7.378403 -0.08343119 115 48 16
-0.9640017 -7.167378 -0.4151552 197 125 49
-1.452041 -7.028925 -0.2012654 106 28 0
-1.541338 -7.606463 0.316781 123 68 0
-0.6486305 -7.236793 -0.7278036 131 68 24
-1.669492 -7.440402 0.3250313 65 36 0
-0.9913055 -7.198279 -0.5970832 90 44 0
-3.1211 -7.163514 0.8082136 90 40 0
-2.087874 -7.428005 0.6476719 164 101 24
-2.13202 -7.426012 0.6721545 139 89 16
-1.572221 -7.520888 0.7414519 82 44 0
-2.13542 -7.44795 0.1925348 98 36 0
-1.555255 -7.527178 0.3451927 74 44 0
-1.505724 -7.619884 0.4130363 106 56 0
-1.993062 -7.43598 0.8897801 164 101 24
-1.140262 -4.295444 -0.06018733 32 4 0
-1.143706 -4.293 -0.05239131 0 0 0
-1.959274 -6.940098 -0.9983803 156 105 32
-1.137148 -4.288688 -0.06697243 57 8 0
-1.855621 -6.970559 -1.146257 98 52 8
-2.018191 -6.949141 -0.7013267 156 85 16
-1.150359 -4.293541 -0.03742169 82 24 0
-1.150885 -4.293148 -0.03632952 106 52 24
-1.144409 -4.297715 -0.04938172 0 0 0
-2.229338 -6.847714 -0.2185307 115 44 0
-4.348441 -6.571414 -1.704617 57 32 0
-2.148746 -7.512466 0.3240864 57 32 0
-2.740086 -6.754088 -0.80216 197 129 49
-4.709659 -6.722223 1.07372 148 76 24
-1.964188 -7.468462 0.7282726 156 101 24
-2.916434 -6.680244 -0.9086192 197 125 49
-2.168063 -6.854277 -0.03208526 115 32 0
-3.06688 -7.184149 0.770175 230 121 74
-2.539107 -6.747249 -0.651154 189 125 49
-2.388146 -7.350225 0.2791732 148 80 16
-1.738793 -7.50983 0.8517225 98 48 0
-3.889194 -7.099722 1.348693 106 44 0
-2.777657 -7.248702 1.091418 189 105 24
-2.903574 -6.660797 -0.6921384 205 133 57
-5.000811 -6.236489 -0.3139701 49 0 0
-1.68654 -2.298446 -0.5069857 49 4 0
-1.765641 -2.284081 -0.6123878 24 0 0
-1.397293 -2.539358 -0.3233587 74 20 8
-1.478247 -2.589499 -0.4630193 49 0 0
-1.39726 -2.531116 -0.3346086 41 0 0
-1.405992 -2.596916 -0.4147451 49 0 0
-1.396551 -2.553472 -0.2733787 49 4 0
-1.493517 -2.549366 -0.2574681 82 12 0
-1.384295 -2.483848 -0.3087124 49 0 0
-1.479867 -2.585903 -0.6341311 57 4 0
-1.656687 -2.422645 -0.750031 90 52 8
-1.554019 -2.492688 -1.010592 41 0 0
-1.68591 -2.414862 -0.7867165 16 0 0
-1.804209 -2.217123 -0.6004015 16 0 0
-1.486458 -2.57106 -0.3568993 57 0 0
-1.525878 -2.544984 -0.2929853 90 20 8
-1.665102 -2.332498 -0.5964546 98 60 24
-1.395934 -2.506519 -0.4830601 41 0 0
-1.778991 -2.371502 -0.6164849 57 24 0
-1.528912 -2.556719 -0.8781506 32 0 0
-1.609689 -2.407259 -0.4598704 0 0 0
-1.553236 -2.523677 -0.4744168 49 0 0
-1.143948 -3.76485 -0.5349773 131 97 57
-1.244791 -3.926339 -0.4389601 172 125 74
-1.171646 -3.7894 -0.4630937 139 97 57
-1.151978 -3.709631 -0.3916784 106 68 24
-1.157125 -3.763082 -0.4720444 156 113 74
-1.282907 -3.882665 -0.4297913 180 129 74
-1.243902 -3.920962 -0.4426236 189 137 90
-1.263038 -3.948203 -0.4353078 164 117 74
-1.201865 -3.716134 -0.4226432 189 133 82
-1.683862 -3.791664 -0.6581125 123 56 0
-1.17009 -3.788845 -0.4540459 139 97 57
-1.228613 -3.753252 -0.4199839 189 133 82
-1.253152 -3.936182 -0.4380782 180 133 90
-1.158971 -3.819578 -0.5062116 139 101 65
-1.638158 -3.684475 -0.6277327 131 60 0
-1.176716 -3.840705 -0.4754632 131 89 49
-1.230109 -3.6817 -0.4196362 180 129 74
-1.211119 -3.60594 -0.4181541 148 97 49
-1.148869 -3.783905 -0.5560116 115 76 41
-1.306534 -3.952789 -0.4478987 164 113 65
-1.285277 -3.882921 -0.428945 164 113 65
-1.124394 -3.734825 -0.4591414 98 64 24
-1.257444 -3.826294 -0.4345223 180 129 74
-1.222337 -3.673853 -0.4147194 156 113 57
-1.538453 -3.574993 -0.5292698 32 0 0
-1.158135 -3.688298 -0.3150849 123 80 32
-1.179016 -3.670019 -0.4217671 131 89 41
-2.101663 4.978977 -1.823552 41 0 0
-1.166141 -3.706606 -0.4411174 148 105 57
-1.697961 -2.986581 -0.9810674 115 52 0
-1.138197 -3.730297 -0.5070034 98 64 32
-1.792752 -2.371768 -0.866062 16 0 0
-1.23518 -3.718232 -0.419741 156 109 57
-1.145123 -3.754501 -0.5279212 115 80 49
-1.149754 -3.727711 -0.4687434 115 80 49
-1.242466 -3.713585 -0.4204025 180 125 74
-1.251361 -3.721558 -0.4222817 156 105 49
-1.764873 -2.301192 -0.5948644 24 4 0
-1.796248 -2.359531 -0.8381874 24 4 0
-1.152553 -3.765811 -0.4913688 139 105 65
-1.194431 -3.653041 -0.4147046 139 97 49
-1.636371 -2.947259 -0.9760401 82 24 0
-1.480713 -2.548587 -0.3403759 74 8 0
-1.191767 -3.719956 -0.4279383 189 133 90
-1.111445 -3.711011 -0.5445184 82 52 24
-1.613436 -2.397499 -0.4276888 98 52 8
-1.706683 -2.442319 -0.6644139 57 4 0
-1.729186 -2.466316 -0.7561975 32 8 0
-1.58991 -2.492296 -0.7463007 32 16 0
-1.400265 -2.544748 -0.2650059 74 20 8
-1.528119 -2.520131 -0.3506866 82 8 0
-1.511789 -2.573137 -0.04771344 82 12 0
-1.467812 -2.594592 -0.09561261 82 12 0
-1.495068 -2.534553 0.1257292 98 28 0
-1.507051 -2.519182 0.1243899 148 60 16
-1.51 -2.564164 0.002671978 90 16 0
-1.468181 -2.605287 -0.2369761 57 0 0
-1.484095 -2.583258 -0.4008566 74 4 0
-1.406966 -2.626615 -0.3619795 74 12 0
-1.42191 -2.625245 -0.3918118 65 0 0
-1.525848 -2.59632 -0.1441768 74 8 0
-1.452814 -2.621733 -0.3319944 82 4 0
-1.507062 -2.569842 -0.1607543 82 0 0
-1.477352 -2.603148 -0.2147632 82 16 0
-1.470786 -2.603405 -0.2174195 65 0 0
-1.500673 -2.587949 -0.3164571 57 0 0
-1.384443 -2.582286 -0.2720029 57 8 0
-1.506503 -2.572798 -0.1616742 74 0 0
-1.501884 -2.511635 0.265296 115 32 0
-1.476541 -2.558732 0.1488971 123 40 0
-2.002669 5.166873 0.1146822 65 32 0
-1.551255 -2.568545 -0.08773825 49 4 0
-1.534403 4.976161 -0.4154575 65 0 0
-1.533976 -2.558958 -0.2432202 90 12 0
-1.406041 -2.633783 -0.2632793 74 16 0
-1.512457 -2.562935 -0.388934 74 4 0
-1.678677 -2.367724 -0.4857063 0 0 0
-1.51261 -2.601276 -0.1403465 98 24 0
-1.586167 -2.468688 -0.423877 32 4 0
-1.511037 -2.575814 0.01602013 90 12 0
-1.874716 5.06082 1.078104 106 44 0
-1.623512 5.00578 -0.220143 82 16 8
-1.421518 4.971467 1.23715 98 48 0
-1.988733 5.124712 0.1226309 65 32 0
-0.1150381 4.612268 -0.8151392 65 16 0
-0.9483028 -3.676291 -0.3473136 148 97 57
-1.136945 -3.719771 -0.3304415 131 89 41
-1.0906 -3.666685 -0.3117198 148 97 57
-1.192213 -3.65553 -0.3165062 90 48 8
-1.021638 -3.716084 -0.3361095 156 109 65
-1.145087 -3.68913 -0.304153 156 105 49
-1.01886 -3.662784 -0.3324557 156 105 65
-1.009051 -3.694094 -0.3391094 180 125 74
-1.024167 -3.659537 -0.3304132 156 105 65
-0.9430428 -3.678891 -0.351937 180 125 74
-1.083816 -3.702382 -0.3179622 139 93 41
-1.00933 -3.72488 -0.3382733 172 117 65
-0.3460674 4.601096 -0.9758965 82 20 0
-0.9430245 -3.773982 -0.3670515 180 125 74
-1.018731 -3.77364 -0.3836417 164 117 74
-1.209614 -3.719092 -0.4204539 164 117 65
-1.062211 -3.727582 -0.3285073 148 101 49
-1.068037 -3.772872 -0.4524979 139 105 57
-1.093288 -3.766941 -0.4323826 148 101 57
-1.161854 -3.715035 -0.4436395 148 101 57
-1.120895 -3.707798 -0.5905032 106 68 32
-1.049963 -3.715772 -0.3320449 164 113 65
-1.098866 -3.76945 -0.3770311 148 105 65
-1.004062 -3.759148 -0.3561631 172 121 74
-1.019055 -3.729363 -0.3423394 189 133 82
-1.08125 -3.757528 -0.3421672 164 117 65
-1.160614 -3.746719 -0.4599576 148 101 57
-1.172019 -3.710104 -0.4378324 164 117 74
-1.081636 -3.765669 -0.3883481 156 113 65
-0.9588355 -3.732507 -0.347087 164 113 57
-1.07659 -3.767503 -0.3665753 156 109 65
-1.144632 -3.745426 -0.5181015 115 76 49
-1.105567 -3.75734 -0.4258833 115 80 41
-1.113137 -3.756368 -0.4135562 131 93 57
-1.103688 -3.694176 -0.5842984 98 72 32
-1.126696 -3.738791 -0.3829803 123 85 41
-0.9359491 -3.78505 -0.377115 189 137 90
-1.145775 -3.705562 -0.4675129 106 72 32
-1.173228 -3.7151 -0.4227573 148 101 57
-1.118088 -3.750694 -0.4232941 123 80 41
-1.003694 -3.782577 -0.5265971 106 76 49
-1.041639 -3.706739 -0.3279566 164 109 57
-0.9590871 -3.694892 -0.3424142 156 105 65
-1.038072 -3.720404 -0.333005 148 101 49
-1.015051 -3.791297 -0.4523416 123 89 49
-0.9517722 -3.813315 -0.410723 156 113 65
-1.010904 -3.78922 -0.4082533 148 109 65
-0.9760785 -3.796738 -0.513155 123 93 65
-0.9281103 -3.821436 -0.477541 131 97 65
-0.9825462 -3.794157 -0.3887556 156 113 74
-1.001949 -3.7956 -0.4702753 123 89 57
-1.00213 -3.789807 -0.3890239 156 113 74
-1.015408 -3.791556 -0.4072961 156 109 74
-0.9433275 -3.819076 -0.4699354 139 101 65
-0.9885014 -3.799801 -0.410717 156 113 74
-0.9755459 4.870666 1.088372 106 44 0
0.8555174 4.972187 0.363623 131 64 0
-0.2775275 4.710294 0.1181706 131 56 8
-0.3911492 4.659804 0.9908705 148 72 24
-0.3350666 4.684157 -0.04867126 65 12 0
-0.6814165 4.69521 -0.2648155 65 12 0
-0.3312263 4.626002 -0.5834628 41 0 0
-0.4805811 4.661157 -0.6029026 65 12 0
0.716312 4.419958 -0.8062658 74 20 0
-0.2710588 4.690935 -0.7201811 65 16 0
-1.239879 4.872031 -1.903661 49 0 0
-1.014554 5.133565 1.017211 90 36 0
-0.5080148 4.659672 -0.3980726 74 20 0
-1.277444 4.916591 1.222075 82 32 0
-1.168779 -3.701449 -0.3312104 98 60 16
-1.111511 -3.736779 -0.3374803 139 89 41
-1.056558 -3.694084 -0.3201103 148 101 49
-1.212439 -3.601521 -0.4128823 164 117 65
-0.9889048 -3.709633 -0.3349651 180 125 74
-0.943117 -3.736183 -0.3346409 156 109 57
0.02807736 5.105836 0.04085384 82 28 0
-0.6403196 4.641816 -0.03081194 90 32 0
0.6979435 4.390616 -0.8466827 65 8 0
-0.4388046 4.661003 0.3910865 106 32 0
0.961167 5.367493 0.2627977 115 52 0
0.3675442 4.953608 -0.001169325 123 48 0
-0.5305132 4.690782 0.008160545 98 32 0
0.5806312 1.976063 1.187255 139 93 24
0.5827378 1.963683 1.22624 139 93 32
1.27387 4.492919 -0.4873704 32 0 0
-0.3150387 4.647679 -0.6596226 24 0 0
-1.557148 4.989867 0.1546268 74 28 0
-0.1224911 5.112423 -0.2601411 65 16 0
0.8534666 5.029711 0.1452773 106 44 0
-0.3986717 4.637149 -0.1642017 115 44 0
-0.1857481 4.708213 -0.8193486 41 0 0
0.2740869 4.448594 -0.81366 90 24 0
-0.4581548 4.678079 0.4673375 106 40 0
-0.4593313 4.666931 0.7527465 156 68 0
0.4667732 4.483007 -1.077616 57 0 0
1.308271 4.271284 -0.7155149 57 16 0
1.559412 5.06193 0.095285 115 48 0
-0.6109195 4.686032 0.13621 115 44 0
-1.37359 4.990437 -0.2976785 65 8 0
-1.558094 4.98475 -0.191682 49 4 0
0.8358507 5.215143 0.061791 106 36 0
-1.2972 4.91708 -0.3874011 74 16 0
-1.791405 5.04144 0.9316018 106 40 0
2.574458 3.947054 -0.6082675 82 28 0
-0.7074975 -3.802738 -0.3347623 139 93 57
-0.7793771 -3.782704 -0.3310166 156 105 57
-0.8583556 -3.738052 -0.3292224 180 129 82
-0.7953959 -3.761503 -0.3276882 164 109 57
-0.8703274 -3.844671 -0.423207 164 121 82
-0.7415916 -3.807279 -0.4751929 98 64 24
-0.9929381 -3.732189 -0.3398208 148 101 57
-0.7103071 -3.826029 -0.4526407 180 129 74
-0.7415959 -3.855867 -0.4808217 164 117 65
-0.979499 -3.790469 -0.374208 164 113 65
-0.8657097 -3.833433 -0.4757976 123 85 57
-0.9716176 -3.806997 -0.4405599 156 109 74
-0.7555351 -3.827485 -0.5198819 106 68 24
-0.8240471 -3.768358 -0.6002945 106 76 41
-0.7415524 -3.728637 -0.63241 32 20 0
-0.8725768 -3.821223 -0.4962866 123 89 57
-0.727985 -3.841468 -0.4721279 156 113 57
-0.7516835 -3.827532 -0.512483 115 76 41
-0.7340952 -3.724382 -0.6352357 32 16 0
-0.7647606 -3.841929 -0.4813915 139 101 49
-0.8627074 -3.813531 -0.5240494 82 52 16
-0.9170551 -3.831712 -0.4729881 123 89 57
-0.9368742 -3.839422 -0.4073397 164 117 74
-0.7574064 -3.840127 -0.5107297 123 89 41
-0.7526572 -3.823994 -0.3664477 164 117 74
-0.9043154 -3.816315 -0.3605626 172 121 74
-0.8022689 -3.839525 -0.3825212 156 109 65
-0.7522602 -3.863434 -0.5016257 148 101 57
-0.7604868 -3.831076 -0.5191498 131 97 57
-0.7607399 -3.750949 -0.6252518 123 85 49
-0.8660703 -3.840086 -0.4615277 148 101 65
-0.8699508 -3.746031 -0.3258805 164 109 65
-0.8655541 -3.845021 -0.3836696 172 129 82
-1.041839 -3.74909 -0.3668285 148 109 65
-0.9523304 -3.801098 -0.4966798 131 93 57
-0.7964174 -3.837339 -0.4347004 156 113 74
-0.9262272 -3.826515 -0.3833601 180 137 90
-0.804984 -3.840693 -0.4174923 164 121 82
-0.8154308 -3.82881 -0.3531581 156 109 57
-0.86164 -3.794989 -0.3338598 180 125 74
-0.8856871 -3.833206 -0.4571896 139 101 65
-0.8818441 -3.820022 -0.3529365 172 125 82
-0.9171663 -3.832119 -0.4022405 156 113 74
-0.7431474 -3.804825 -0.3336902 156 101 57
-0.8744441 -3.789424 -0.3366269 164 113 65
2.813129 3.777309 -0.6723063 74 12 0
-0.7474755 -3.802375 -0.3241229 164 113 65
-0.7183256 -3.806904 -0.3302703 148 101 57
-0.8367426 -3.78283 -0.3343403 164 113 65
1.795927 4.202048 -0.8327698 65 16 0
3.943761 2.436574 1.259903 16 0 0
2.646811 4.493104 -0.02191781 65 16 0
3.908957 2.557137 -0.1351747 57 20 0
2.626309 3.956712 -0.08275387 41 0 0
2.888507 3.838453 0.6712893 106 40 0
4.120186 3.565237 0.840804 74 28 8
-0.4763088 4.689996 -0.01894521 123 48 0
2.659623 3.928156 -0.1377263 106 40 0
2.823724 3.866455 -0.05984267 74 20 0
3.853065 3.594189 1.300852 82 32 0
-0.7664894 -3.808892 -0.3560958 172 121 74
-0.8409324 -3.778401 -0.3309772 156 109 57
-0.8645204 -3.70889 -0.3426889 164 113 65
3.914727 2.55265 -0.2924729 65 28 0
0.09177852 4.561413 1.3557 139 64 24
3.831907 3.843389 -0.1686828 32 0 0
3.718615 3.620146 1.292576 82 36 0
1.054696 4.374109 -0.6223201 106 40 0
2.786124 3.856573 0.9269337 131 64 8
2.735325 4.908238 -0.2060626 24 0 0
-0.05023215 5.138252 -0.01298358 65 8 0
2.628962 4.063366 0.3535491 98 32 0
2.607093 4.462571 0.8013616 98 44 8
-0.4480329 4.671195 0.6585022 148 64 0
3.028093 -2.339472 -0.5288936 82 20 0
3.036955 -2.308848 -0.4311146 82 16 0
-0.1823079 -3.851927 -0.5467666 32 4 0
-0.257462 -3.898943 -0.8187994 123 52 0
-0.2000769 -3.938304 -0.6207349 82 48 16
-0.1944147 -3.893915 -0.5864648 106 60 8
-0.2054181 -3.850437 -0.632847 24 0 0
-0.2522164 -3.935403 -0.8113195 164 76 0
-0.2175434 -3.83979 -0.6813434 24 0 0
-0.2043083 -3.855953 -0.6309254 24 0 0
-0.2030144 -3.853331 -0.6245868 106 64 8
-0.234183 -4.010937 -0.7645281 139 72 0
-0.2596086 -3.901345 -0.8253513 148 72 0
-0.1914254 -3.832233 -0.5720124 106 64 24
-0.2543742 -3.795301 -0.7983374 123 56 0
-0.2420623 -3.879269 -0.7722392 98 36 0
-0.1856566 -3.934061 -0.5474318 82 44 16
-0.2146781 -3.955226 -0.6550502 90 28 0
-0.2034066 -3.84163 -0.6270504 49 12 0
-0.2092021 -3.827223 -0.6496308 49 12 0
-0.1858598 -3.858962 -0.5526122 82 44 0
-0.2531921 -3.925734 -0.8116364 115 44 0
-0.2210964 -3.894195 -0.7043895 98 56 8
-0.1987859 -3.82861 -0.6023469 82 44 0
-0.2028749 -3.818118 -0.614693 65 24 0
-0.2340089 -3.964258 -0.766797 131 60 0
-0.1978141 -3.947845 -0.5680702 49 20 0
-0.2041951 -3.853636 -0.6239263 106 60 8
-0.2122536 -3.875946 -0.6819416 82 36 8
-0.2381956 -3.841747 -0.7757366 106 36 0
-0.1991008 -3.917553 -0.598223 74 36 0
-0.1992494 -3.906198 -0.6003293 74 40 0
-0.2184931 -3.814569 -0.6927962 98 56 8
-0.1901233 -3.871792 -0.5380765 82 40 16
-0.241199 -3.990113 -0.8035873 148 64 0
-0.2185362 -3.860657 -0.702943 115 64 8
2.952075 -2.621336 0.4507538 164 68 0
2.676958 3.872123 -0.3255557 65 12 8
2.941147 -2.696923 0.652498 180 89 8
2.741529 3.828411 -0.3047738 57 8 0
-0.09580476 -3.90427 -0.3991212 82 12 0
2.615231 3.861317 -0.1846019 98 36 0
2.826961 -3.073533 0.979754 115 40 0
3.091689 -2.031607 0.8886919 115 56 8
2.859669 -2.998104 0.1494325 156 60 0
0.01956298 -3.889709 -0.1728095 65 12 0
3.614748 3.600244 0.005288364 82 24 0
1.431045 5.004863 -0.4124179 49 20 0
0.04033047 -4.16181 -0.2022918 98 48 0
0.05410524 -4.156002 -0.1772233 82 32 0
0.03642143 -4.157829 -0.209576 74 28 0
0.01672321 -4.003891 -0.2067812 82 12 0
2.838222 -3.098683 -0.4123608 123 32 0
2.837897 -3.101892 -0.6073992 131 48 8
-0.06275791 -4.090731 -0.4382155 106 44 0
-0.05128993 -4.028326 -0.4499266 90 24 0
0.001822532 -4.004292 -0.3029539 255 206 57
0.003728702 -4.097448 -0.2909478 246 242 246
0.001814704 -4.088078 -0.3118653 41 44 8
0.06616031 -4.163679 -0.1544595 65 20 0
0.003362219 -4.140797 -0.2686254 222 133 74
0.0211849 -4.173317 -0.2233496 32 0 0
-0.05059082 -4.146492 -0.358955 230 141 82
0.008521038 -4.227861 -0.2338456 82 40 8
-0.02004033 -3.948638 -0.2781474 123 60 0
0.001614215 -4.084457 -0.3031733 98 52 16
-0.02540604 -4.082878 -0.3382539 230 137 57
0.01832916 -4.185773 -0.224662 57 16 0
0.04134039 -4.240331 -0.1708878 57 12 0
-0.02389782 -3.940926 -0.2885366 82 32 0
0.008091955 -4.074565 -0.2988234 238 226 238
-0.06736006 -4.06775 -0.4529643 115 52 24
-0.03566892 -4.132338 -0.3266542 255 194 139
-0.06446117 -4.095191 -0.397524 16 0 0
0.02548729 -4.142679 -0.2196167 131 64 16
-0.1400202 -3.876567 -0.4721873 65 4 0
-0.01906932 -4.222258 -0.3681743 131 80 24
-0.2373997 -3.834285 -0.7191553 106 40 0
-0.03083233 -4.017853 -0.6340829 98 60 16
0.004218082 -4.172121 -0.4624243 139 89 49
-0.0287522 -4.078413 -0.3300256 246 141 57
-0.1942711 -3.889066 -0.6022099 82 40 0
-0.2242491 -3.867781 -0.7003315 106 60 8
-0.009660636 -4.113592 -0.5236713 115 72 24
-0.233532 -4.055287 -0.743786 115 44 0
-0.1788211 -3.932835 -0.5582541 65 32 8
-0.009801428 -4.088394 -0.5933579 123 80 41
-0.01591585 -4.106129 -0.6052642 131 85 41
-0.1934617 -3.901791 -0.6288924 82 44 0
-0.07391451 -3.892299 -0.3600733 41 16 24
-0.01555838 -4.063669 -0.5423896 148 93 49
-0.01660649 -4.146708 -0.5418447 123 76 24
-0.02273581 -4.146128 -0.5887303 106 60 16
-0.07231625 -4.050182 -0.422442 98 32 0
-0.06785762 -3.947218 -0.358993 106 28 0
-0.01213111 -4.096041 -0.5845283 123 68 32
-0.02357296 -4.215593 -0.2939925 82 40 0
-0.002309617 -3.860571 -0.2347987 74 16 0
-0.2617496 -3.989206 -0.8006542 156 76 0
-0.2553235 -3.942566 -0.7965471 139 64 8
-0.216708 -3.974969 -0.690799 131 64 0
-0.01140051 -4.10725 -0.5727654 123 80 41
-0.01197722 -4.11173 -0.5966824 115 68 41
-0.01436324 -4.046136 -0.5834851 131 76 32
-0.2649299 -3.844582 -0.8010556 131 60 0
0.06475012 -4.154375 -0.1442636 98 36 0
-0.04216165 -4.127212 -0.3397591 255 178 115
-0.06540302 -4.134462 -0.5424576 123 76 32
-0.0272535 -4.23672 -0.3034192 74 28 0
0.04747356 -3.998071 -0.1684466 82 8 0
2.712033 -3.480976 0.5723506 131 93 16
2.750583 -3.298758 0.169333 131 48 0
0.0331572 -3.933153 -0.1731555 98 24 0
2.699545 -3.554996 0.4888757 164 97 0
2.715811 -3.471072 0.546636 123 80 16
2.843638 -3.064514 -0.1887174 123 40 8
2.94906 -2.658943 -0.4960333 106 24 0
0.008101569 -3.938528 -0.2186158 8 0 0
0.004286333 -4.021054 -0.295785 255 255 255
0.008564371 -3.971881 -0.2238131 106 24 0
2.80978 -3.175869 0.1167063 139 48 0
2.830786 -3.116027 -0.1745232 98 16 0
2.858137 -3.026671 -1.418397 106 32 0
2.813512 -3.167866 -0.1264216 131 48 8
2.704553 -3.532297 0.501363 115 72 0
2.757932 -3.290881 -0.4189784 98 24 0
2.858423 -3.0035 -0.1719744 115 40 0
0.03085147 -3.918408 -0.1674598 90 12 0
2.683139 -3.58484 0.5736109 197 121 8
-0.0954544 -4.299894 -0.1564588 0 80 115
-0.08924884 -4.311213 -0.1230735 32 129 238
-0.2156736 -4.487455 -0.1620401 0 105 222
-0.5335573 -4.577612 -0.06786999 0 85 172
-0.5027249 -4.494205 -0.05210424 0 89 172
-0.5428566 -4.55043 -0.06932157 180 218 255
-0.5439666 -4.54884 -0.06226825 189 238 255
-0.5326431 -4.50962 -0.05825421 156 186 255
-0.5102584 -4.535426 -0.06778226 0 60 180
-0.5462685 -4.540818 -0.05903882 180 234 255
-0.5182936 -4.497714 -0.001240525 0 64 164
-0.5418108 -4.579153 -0.07334215 0 72 164
-0.5240706 -4.487842 0.01556192 180 218 255
-0.5311919 -4.497416 0.007256059 0 52 139
-0.5171168 -4.493912 0.01084553 197 242 255
-0.4774259 -4.452329 0.01877263 172 202 255
-0.5254516 -4.497786 0.005134317 180 218 255
-0.5103661 -4.536574 -0.04894591 180 246 255
-0.52658 -4.502013 -0.01041333 98 149 255
-0.5395579 -4.527058 0.00872542 123 174 255
-0.5116432 -4.529958 -0.05225165 0 64 156
-0.5316829 -4.510053 -0.03377584 0 56 139
-0.5381408 -4.534447 -0.008607232 180 246 255
-0.5463724 -4.531342 -0.01946834 180 246 255
-0.5335467 -4.560549 -0.04346526 164 198 255
-0.5465512 -4.54575 -0.06001099 172 210 246
-0.476403 -4.554825 -0.08474061 49 129 255
-0.534389 -4.543334 -0.02288776 0 68 180
-0.4994204 -4.435949 0.0166061 172 202 255
-0.5111018 -4.51945 -0.06763202 115 174 255
2.749161 -3.311183 -0.1128124 115 32 8
2.86287 -2.991748 -0.1758926 98 20 0
-0.6612337 -4.673986 -0.0631737 74 153 255
-0.5500057 -4.55801 -0.05131247 172 210 255
-0.5669725 -4.580255 -0.08109886 41 182 213
-0.5507491 -4.526977 0.03258886 246 255 255
-0.5893735 -4.551777 -0.004979 57 113 230
-0.6438646 -4.690258 -0.09331659 0 109 189
-0.5442269 -4.532704 0.02074639 24 105 230
-0.5448218 -4.579696 -0.08667088 16 137 189
2.869522 -2.988405 -0.6523571 74 8 0
2.854502 -3.040368 -0.371594 90 12 0
2.87009 -2.983251 -0.6320125 98 32 0
-0.5318663 -4.542001 -0.04690801 189 246 255
-0.532062 -4.561623 -0.07221666 16 101 197
-0.6756606 -4.65078 -0.07361608 0 129 180
-0.5250583 -4.555034 -0.0370834 180 214 255
-0.5123256 -4.536502 -0.05015145 180 234 255
-0.5279198 -4.545573 -0.01527604 74 125 222
2.834724 -3.092422 -0.2678306 82 12 0
-0.5266406 -4.535991 -0.05114979 172 210 255
0.1085627 -7.678616 -0.7802802 24 8 0
-0.5321957 -4.546469 -0.04978101 180 242 255
-0.6715509 -4.672602 -0.06713837 0 48 115
-0.90211 -4.436554 -0.01026267 115 60 16
0.114294 -7.708299 -0.84922 24 12 0
-0.237699 -7.662024 -0.574676 98 68 24
1.249113 -7.532702 -0.7079761 74 36 8
-1.542154 -7.605063 0.2618765 98 64 0
-2.115005 -7.492836 0.1467134 123 48 0
-2.468925 -7.329331 0.4677838 115 68 8
-1.024152 -7.101049 -0.2317615 106 36 0
-1.727701 -7.503992 0.6395925 90 44 0
0.5883426 1.618854 -0.7481982 41 8 0
0.4118852 1.971258 -0.6201926 230 202 156
0.8284318 4.412193 -0.8141411 82 28 8
0.614792 1.693027 -0.8505839 57 28 0
0.5508258 1.804342 -0.878217 115 76 49
0.395306 1.757824 -0.9343778 32 0 0
0.06587518 1.333171 -0.921041 90 0 0
0.3542787 1.709545 -0.9945626 82 24 8
1.317234 1.591188 -0.7687306 74 0 0
1.526861 1.886217 -0.7568069 24 0 0
2.285916 4.174695 -1.114595 74 16 0
2.438562 4.11145 -0.7899749 90 28 8
2.703 1.86475 -2.097988 90 32 0
2.334145 1.78413 -2.099437 131 85 32
0.5883387 0.9616961 -0.9265258 65 0 0
0.127754 1.083425 -0.9270667 98 28 8
0.6058894 1.762088 -0.937943 49 12 0
0.4180672 2.048328 -1.07458 41 0 0
0.4219806 0.875714 -0.9285843 98 4 0
0.4412445 0.9923331 -0.930698 98 32 16
0.592868 0.9674783 -0.93051 74 4 0
0.5848956 0.8517283 -0.9172971 98 28 0
0.3476092 1.222144 -0.9279233 49 0 0
1.292062 1.428842 -0.7022035 90 8 0
-0.04472451 0.9763551 -0.9248307 90 16 0
0.2566173 0.8615582 -0.9266031 115 48 24
0.06749504 0.7808629 -0.9350231 82 24 0
0.5157478 1.857112 -0.8749768 57 32 24
2.780041 1.928387 -1.927681 123 56 0
2.094269 1.732346 -2.087628 106 64 24
2.644593 2.440198 -2.111645 90 32 0
0.5597689 1.061399 -0.9416397 98 16 0
0.3030134 0.9621151 -0.9349123 90 28 0
2.623415 2.158545 -2.160233 115 48 0
-1.056146 3.310992 -2.194698 115 68 0
-0.9340636 3.331206 -2.182249 57 4 0
-0.9473322 3.689677 -2.167952 24 8 0
-1.007136 3.786066 -2.200788 139 101 32
-0.7835456 2.316743 -2.141098 8 0 0
-0.7810574 2.393746 -2.16712 41 8 0
-0.8070475 2.272663 -2.13354 0 0 0
-1.106589 3.13322 -2.177472 123 80 32
-1.541844 4.128523 -2.206257 115 44 0
0.1724441 0.8656854 -0.9233079 115 16 0
-0.06911191 0.9859338 -0.9173127 82 20 0
0.1983968 0.8611265 -0.9231552 98 16 8
0.05417122 0.9511883 -0.9190882 98 16 0
-0.02173067 0.8448189 -0.9258916 106 28 0
0.0145782 1.187833 -0.9477035 82 4 0
0.161002 0.8536153 -0.9524737 123 40 8
0.009042896 0.8069441 -0.9529893 115 52 32
0.09437271 0.8650327 -0.9298459 123 56 24
0.4149789 0.8102244 -0.9586696 98 16 0
-0.3581129 1.085814 -0.966168 98 32 8
1.208536 1.07747 -0.662618 82 32 8
0.2247832 1.447173 -0.9138797 74 20 8
1.120684 1.413435 -0.9239449 49 0 0
1.617073 2.424539 -0.9366407 49 0 0
2.015534 4.062219 -1.043709 98 32 8
0.5647362 1.890969 -0.8441292 65 28 8
0.5784934 1.745971 -0.8984237 139 101 65
0.4970014 4.509291 -1.067407 98 32 8
1.28116 1.378207 -0.7120876 74 0 0
0.8911485 4.400732 -1.059476 131 80 41
1.24182 0.8283015 -2.069469 49 16 8
1.201042 0.8205039 -2.099845 65 32 16
0.2920411 0.3398238 -1.114747 16 0 0
0.09819353 0.6233139 -1.323046 57 24 0
1.314756 0.7771866 -2.089007 74 36 0
0.07630533 0.8324976 -0.9219346 82 4 0
0.383222 0.7235783 -1.31376 24 0 0
0.02898764 0.6642922 -1.327066 98 60 16
0.3489696 0.5425026 -1.327057 57 32 8
0.346586 0.7210783 -1.321059 49 24 8
1.355686 0.8038916 -2.002302 65 4 0
0.04638427 0.6566442 -1.31088 106 64 24
-0.009216759 0.9269466 -1.378281 32 0 0
1.265294 0.854232 -2.049003 65 36 8
1.3018 1.229174 -0.6515949 74 20 57
2.482912 1.837562 -2.123845 164 80 0
0.2245173 0.9237154 -0.926939 90 28 16
0.3648455 4.40075 -0.8337192 65 8 0
1.251761 4.296903 -1.089632 82 8 0
1.326285 0.8713452 -2.063512 90 56 8
1.552121 0.7785048 -2.070072 24 4 0
1.757608 0.8109502 -2.070357 8 0 0
2.016632 1.168183 -2.093119 0 4 0
1.553728 0.92821 -2.071543 74 40 0
1.636334 0.7293782 -2.047644 131 72 24
1.594282 0.9963709 -2.06188 24 0 0
1.936808 1.101915 -2.081356 32 0 0
2.035005 1.211923 -2.086141 32 0 0
1.932803 1.145802 -2.092136 32 4 0
1.739778 0.7089139 -2.043773 16 4 0
1.750433 0.9148495 -2.057216 0 0 0
2.062896 1.024911 -2.081041 49 12 0
1.734679 1.081113 -2.08147 90 44 16
1.560073 0.9513706 -2.061445 32 8 0
1.63578 0.7734985 -2.061967 106 68 32
1.871966 0.9935091 -2.070182 32 16 8
1.666651 0.8213572 -2.069916 106 68 32
1.819813 1.117102 -2.082777 49 4 0
0.2207319 0.8644288 -0.9288134 90 20 0
0.6030123 1.692692 -0.9071413 49 20 0
0.4385304 2.037586 -1.835102 222 186 172
0.5199876 1.754496 -0.8645093 49 8 0
0.3956416 1.852018 -0.7710585 49 20 0
0.8737305 4.282388 -0.8530771 57 4 0
0.2847163 1.178622 -0.9331092 65 0 0
2.09053 1.194654 -2.081534 49 28 0
1.695688 0.8493304 -2.068589 123 80 24
1.915201 1.008318 -2.059848 0 0 0
1.684749 1.03043 -2.074111 106 60 24
1.587907 0.7630277 -2.057521 115 80 32
1.67624 0.8508943 -2.067122 24 0 0
1.3622 0.7362023 -2.061542 90 52 24
2.565804 2.069085 -2.132282 123 52 0
1.442207 0.7776064 -2.056819 49 20 0
2.060697 1.255032 -2.08647 49 28 8
1.58141 0.9046312 -2.072568 32 4 0
-0.7397325 2.084675 -2.162512 41 0 0
-1.494296 3.120931 -2.161698 106 64 16
-1.432807 2.735852 -2.152834 131 80 57
-0.9523085 3.327084 -2.179279 90 48 0
-0.9309672 3.138315 -2.135511 41 0 0
-1.114522 3.760164 -2.182439 139 97 57
-0.9122754 1.538837 -2.128982 106 56 0
-0.7767144 2.094469 -2.153659 57 16 0
-0.9239631 2.124566 -2.139667 90 48 16
-0.8500742 1.995064 -2.14588 65 36 8
-1.150332 1.640338 -2.088316 49 0 0
-1.171832 1.657233 -2.097392 90 56 8
-0.6604576 1.871804 -2.131948 82 48 16
-0.8244588 1.629603 -2.116699 90 52 16
-0.9603863 1.986759 -2.150457 90 48 0
-0.7414687 1.354906 -2.10939 57 32 0
-0.6740944 1.958022 -2.144441 32 0 0
-0.9316699 2.035772 -2.144833 74 40 16
-1.038555 2.162966 -2.150152 57 20 0
-0.84933 1.565884 -2.109921 82 40 0
-1.18769 2.164258 -2.121281 98 68 41
-0.8386711 2.387424 -2.146878 49 24 8
-0.9109722 1.388924 -2.113291 65 28 0
-0.7327427 1.510837 -2.132258 32 8 0
-1.197448 1.794684 -2.101579 106 60 16
-0.7713779 1.777867 -2.149313 115 64 8
-0.7444844 1.738531 -2.126767 74 40 8
-1.226785 1.917159 -2.1277 90 44 0
-1.189114 2.222235 -2.136029 8 0 0
-0.992932 2.002723 -2.136122 65 40 8
-0.6313317 1.492793 -2.126822 49 20 0
-0.8776289 1.491783 -2.117113 115 68 16
-0.8590828 1.555186 -2.112654 41 0 0
-0.9042959 2.556636 -2.157483 106 60 32
-0.535619 1.297755 -2.115171 98 64 0
-0.5168436 1.299388 -2.111573 32 0 0
-0.2270321 1.618022 -2.111542 49 20 8
0.1693912 1.17511 -0.940171 74 12 0
-0.6604096 1.849771 -2.142724 32 16 0
-0.6827612 1.330248 -2.092459 49 16 0
0.05978547 1.063388 -0.9248323 90 28 8
-0.00327648 0.9747617 -0.9272691 98 20 0
-0.5522852 1.269591 -2.08911 57 28 0
-0.1518663 1.285078 -2.130299 8 0 0
-0.2672627 1.633689 -2.11933 41 20 8
0.04902565 1.213197 -0.9310173 82 0 0
0.4188439 1.759794 -0.9358757 41 0 0
0.003524284 0.1551875 -0.6919502 82 40 16
0.02244115 0.1978054 -0.8486481 90 52 32
0.1195285 0.1294265 -0.7066636 106 52 16
2.791361 3.914005 -0.5174112 90 28 8
2.899118 3.884431 -0.07791813 74 20 0
3.117275 3.952857 0.2820308 57 4 0
0.7677529 4.377356 -1.235102 98 36 0
2.30205 3.641754 -0.1057268 49 4 0
0.6703612 1.958279 -0.6157608 230 206 148
1.270104 1.405022 -0.7293471 49 0 0
1.257608 1.63378 -1.06983 57 4 0
0.6076112 1.827566 -0.9789581 65 16 8
2.072239 3.874213 -0.5875567 98 32 0
2.560037 4.043189 -0.5447248 115 56 16
0.1353033 4.492798 -1.040604 98 36 8
1.017783 2.053009 -0.9374865 74 16 0
0.9324377 1.515493 -0.9439509 115 28 0
2.666719 3.873129 -0.6039251 57 4 0
2.473715 4.059839 -0.9731029 57 8 0
3.421985 3.915472 -0.2897694 82 20 16
2.757969 3.882622 -0.1798534 90 36 0
2.904775 4.009044 0.2565361 106 40 0
-0.9115785 4.890455 -0.454845 74 12 0
0.2428126 0.9735435 -0.9244906 90 24 0
0.1306309 1.127335 -0.9387415 74 8 0
0.5620331 0.7755455 -0.9233819 90 16 0
2.968943 2.264184 -2.022349 24 8 0
0.3650569 1.149769 -0.9297824 65 0 0
0.1935727 0.9649479 -0.9262179 82 16 8
0.1471529 1.088031 -0.9475159 98 20 0
1.309963 1.551479 -0.7212107 82 0 0
2.506198 1.447049 -2.078305 106 40 0
0.6101756 1.066746 -0.9322793 123 36 16
1.286121 1.407357 -0.7116563 57 0 0
2.801726 3.854279 -0.3643188 82 20 0
-1.099899 3.290904 -2.19683 98 60 24
-1.297615 3.174578 -2.177233 115 76 24
-1.32608 3.316985 -2.165073 115 97 57
-0.9462004 3.567478 -2.166289 115 72 8
-0.9147571 2.802162 -2.173141 57 4 0
-0.9313112 2.791577 -2.157695 41 0 0
-1.180302 2.914191 -2.155549 106 64 8
-1.378752 4.033384 -2.206611 74 32 0
0.002558165 0.9708419 -0.9185856 98 12 0
-0.1222076 1.146535 -0.9359673 90 4 0
-0.4833834 1.463396 -0.7105141 74 20 8
0.3934432 0.9489731 -0.9096379 82 0 0
0.2723199 0.8131915 -0.9093953 90 28 0
-0.04702805 0.8726126 -0.9028092 98 24 0
0.2427144 1.247375 -0.9622995 82 16 0
0.665114 0.879081 -0.9639025 106 32 16
2.672233 4.049365 0.5868285 115 52 8
0.5691792 1.797049 0.7333279 255 246 115
2.645912 3.901942 -0.2740781 65 12 0
1.033073 4.395427 -0.775083 98 28 0
2.726179 3.873863 -0.2763453 65 0 0
0.07879598 0.2392419 0.04579718 115 48 0
0.2165069 1.659531 0.5338362 255 255 255
0.4528596 1.804814 -0.8320831 74 40 8
0.3743815 1.672388 -0.9492708 32 0 0
2.113395 4.034731 -0.9992937 82 24 0
0.4694604 1.866038 -0.9662868 49 0 0
0.5403479 1.880634 -0.9387829 32 0 0
0.5059692 1.861303 -0.9405158 57 12 0
-0.5196894 2.43209 0.4994452 98 36 0
0.4112951 1.764776 -0.8469866 131 97 82
2.768047 3.926947 0.4512576 90 24 0
0.680167 1.680172 0.5276464 230 242 255
0.6375483 1.663737 0.8060352 90 60 0
0.6064298 1.901999 1.324264 156 113 57
0.652464 2.435499 0.8594772 115 56 0
0.5868857 1.685823 0.8097988 255 250 148
0.5837311 1.885079 0.9317605 106 76 8
0.6800895 1.56744 0.7713233 98 72 41
2.353131 4.059123 -1.011062 98 40 0
0.5959499 4.517869 -1.082594 82 20 0
0.6813865 1.568242 0.7862326 115 80 41
0.2933657 1.648007 0.6933125 115 80 32
0.7038438 1.431507 0.5129187 172 161 131
2.304777 4.084612 -0.8288767 65 12 0
0.7012635 1.660422 0.8620808 74 48 0
0.6669313 1.611548 0.8464131 32 16 0
0.2306383 1.676583 0.6148681 255 255 255
0.5988448 1.886202 1.369537 74 44 0
0.5330263 2.223139 0.5353891 255 255 255
3.662451 1.562044 -0.6410956 16 40 123
3.695791 2.6537 -0.9734384 49 20 0
3.336446 2.301328 -0.9100685 32 32 82
0.5363498 0.8379163 -0.9119841 90 20 0
2.844831 2.146198 -2.058312 139 68 0
2.251439 1.549139 -2.084288 123 76 32
2.870437 0.7907155 -1.853133 8 0 0
2.337795 1.994201 -2.053212 57 24 0
2.355324 0.8394432 -1.359885 24 0 0
0.471361 0.9307962 -0.929465 106 40 16
3.670774 2.379495 -0.8395791 41 16 0
3.031354 1.476493 -2.167755 65 28 0
0.1479358 1.055934 -0.9300346 90 12 0
0.3871359 1.212304 -0.9331677 82 12 8
1.305803 1.251138 -0.6674463 98 24 8
1.511225 0.6735711 -2.061615 106 60 16
1.240387 1.523997 -0.9330364 57 0 0
1.255095 1.237306 -0.6382636 98 20 0
1.195342 1.34942 -0.9420572 82 20 8
1.652329 0.5370271 -2.099009 82 48 8
2.495128 0.7603362 -1.360139 41 16 0
1.57368 0.9222069 -2.08887 74 40 0
1.788808 0.1942907 -2.041971 90 48 0
2.112592 1.422385 -2.070641 0 0 0
1.788552 0.6390975 -2.075076 82 44 16
2.089511 0.9702716 -2.083517 139 101 49
1.705754 0.6773772 -2.094018 0 0 0
1.921657 1.013412 -2.098922 41 12 0
1.967466 1.368931 -2.082821 98 52 0
1.648962 0.6473161 -2.069471 106 72 0
1.826261 1.211128 -2.071695 0 0 0
1.738244 0.3851444 -2.046172 41 0 0
1.713407 0.2437072 -2.068852 82 56 24
1.823752 0.238111 -2.063925 98 48 0
1.786162 0.5154878 -2.038397 32 4 0
2.852931 0.6395997 -2.102804 49 12 0
2.130119 1.357747 -2.067642 98 60 41
1.415092 0.6648524 -2.074805 90 52 16
1.523822 0.6227987 -2.077455 57 28 0
2.405605 0.848222 -2.072258 65 36 8
1.768638 1.294808 -2.053463 0 0 0
1.462635 0.3653181 -2.072741 41 20 8
2.399247 0.9250908 -2.092199 148 68 0
2.364801 1.026591 -2.131588 123 52 0
1.763794 0.6137557 -2.068741 0 0 0
1.751443 0.3150395 -2.074765 8 4 0
1.784593 0.5646201 -2.022402 106 68 24
2.802659 0.7813613 -2.05963 41 12 0
0.7992852 4.378959 -1.220252 82 20 0
0.7778919 4.346136 -1.127639 57 0 0
0.4084519 3.68212 -2.95362 57 0 0
0.3866138 1.754522 -0.8749231 90 64 74
0.3839952 1.791447 -0.7301564 98 76 32
0.3600159 1.721063 -0.9123077 74 20 0
0.1788214 0.2212484 -0.8357467 24 0 0
0.4054818 1.748568 -0.7185714 180 141 115
0.131121 1.113843 -0.9320854 74 16 0
0.6214706 0.9854615 -0.9360315 106 32 8
0.4781125 1.117566 -0.9211583 82 16 0
0.2234077 0.9000363 -0.9215566 98 36 16
3.806461 2.516141 0.5540525 148 85 41
3.855332 2.459548 -0.8126238 74 40 8
3.831272 2.545143 -0.4242078 106 60 16
3.944466 1.940708 0.726608 90 28 0
4.127067 1.941633 -0.4289628 65 20 0
3.795308 2.636489 0.4172353 74 16 0
3.688672 2.583002 -0.8479292 57 28 0
3.776802 2.414508 -0.6889159 41 8 0
3.200466 2.189512 -0.8778294 32 32 74
3.780601 2.689597 -0.2159649 106 68 32
3.664243 2.684621 -0.9488422 65 28 0
3.199691 1.923858 -0.7119261 65 12 0
3.886392 2.487395 -0.4770183 90 44 8
0.4383861 4.485831 -0.8486043 57 4 0
3.778339 2.582471 0.661128 131 85 32
3.338693 1.939045 -0.5855945 156 125 90
0.6524441 0.9627331 -0.9143191 131 52 16
0.9078926 0.8769782 -0.9250734 98 16 0
2.373711 2.098503 -2.064133 115 72 32
3.270128 2.867917 -2.16786 115 48 0
3.171799 1.835126 -2.151729 8 0 0
3.266356 1.576139 -0.7227556 0 0 0
2.243595 1.46869 -2.105024 65 28 0
2.530786 1.167544 -2.117873 90 32 0
2.259953 1.535068 -2.102443 49 12 0
2.040557 1.499269 -2.064868 8 0 0
2.800333 0.8063642 -2.055216 57 20 0
3.618426 1.959486 -0.7893186 16 4 16
3.037061 1.927446 -2.008492 74 32 0
3.659405 2.544147 -2.134665 82 28 0
3.379109 1.247006 -0.5192664 24 4 0
3.836382 2.556798 0.680523 57 20 0
2.443693 1.169409 -1.428082 24 8 0
2.340378 1.440445 -2.119563 131 60 0
2.227613 1.410732 -2.100151 148 105 57
2.650326 1.239677 -1.350743 24 4 0
2.133362 1.499333 -2.095729 90 60 32
0.2881778 0.8716602 -0.9298387 98 36 16
0.6944858 4.495257 -1.094577 65 12 0
0.3861963 1.757531 -0.6044828 213 186 123
3.852153 2.412461 0.9103051 131 76 32
0.6296145 1.66085 0.8084871 90 60 0
3.325207 1.890002 -0.6279539 41 0 0
3.368664 1.300877 -0.6043263 148 178 255
2.118338 3.978409 -1.022846 74 16 0
3.239773 1.091263 -0.5930611 16 4 24
3.237772 1.112095 -0.6004283 180 210 255
3.256407 1.700953 -0.8133531 16 89 213
0.3854857 1.753101 -0.6714802 106 85 41
0.6765541 1.557784 0.7673367 98 64 32
2.279126 4.079068 -0.7428358 98 48 16
0.629375 1.848673 1.036054 24 0 0
0.6096353 1.596989 0.8134009 41 24 0
3.263551 -0.3653447 -0.5664833 82 52 8
3.605844 0.0551471 -0.4074768 65 8 0
3.242511 -0.2522161 -0.4886742 90 52 24
3.258851 -0.15459 -0.351688 65 24 0
3.250489 -0.2193462 -0.5286239 90 44 0
3.268157 -0.1592605 -0.408863 65 28 0
3.379521 -0.1915888 -0.5529648 82 44 0
3.2139 -0.3086604 -0.3391501 65 28 0
3.178183 -0.2866401 -0.3460198 90 52 16
3.235463 -0.2286511 -0.358741 106 56 16
3.249415 -0.3124754 -0.4425734 65 36 8
2.636331 3.89448 -0.237306 65 8 0
2.929842 -0.4375482 -1.150168 82 48 8
2.929127 -0.4564758 -1.059219 74 40 8
3.579693 0.3634537 -0.6646311 49 8 16
3.297968 -0.3563038 -1.21301 41 12 0
3.266386 -0.2958554 -0.9069977 49 16 0
3.278928 -0.2125381 -0.6702377 98 48 8
3.277356 -0.3384497 -0.7525839 74 36 8
3.244779 -0.2619339 -0.6117694 98 52 16
2.925278 -0.4889515 -0.615433 98 56 16
2.948617 -0.4713848 -0.5724183 98 52 16
2.684016 0.2053301 -0.8759419 106 80 49
3.283836 -0.2941945 -1.347193 41 8 0
2.925398 -0.4466391 -1.08164 90 52 16
2.916142 -0.435776 -1.490969 49 8 0
