ply
format ascii 1.0
element vertex 1242
property float x
property float y
property float z
property uchar red
property uchar green
property uchar blue
end_header
3.140664 5.349692 0.660926 74 56 41
4.062702 4.854607 0.8761783 16 12 0
2.670637 6.842124 2.307711 156 76 98
3.238477 5.675463 0.4611263 16 24 24
2.448825 5.916541 1.46678 189 210 164
2.924373 5.252587 1.453835 82 133 57
3.789788 4.774535 1.000693 106 141 65
3.415957 6.259237 0.8237967 8 8 8
2.660648 5.841758 1.481079 106 149 82
3.827873 4.84866 1.030098 32 52 32
3.615436 5.446744 0.4572581 24 32 32
4.648773 5.190086 0.9122013 24 28 24
3.734762 5.581575 0.5508482 24 32 32
3.34186 4.478817 0.1045736 49 20 24
2.945909 4.893535 1.286701 90 125 57
3.1219 5.61558 0.6013529 32 40 32
2.075787 5.905286 1.262695 82 105 41
2.366982 6.191217 1.530566 189 210 148
2.370361 5.606981 1.316597 49 76 0
2.812083 6.415186 0.1427165 24 28 24
3.301225 6.434792 0.04499222 8 24 8
3.608607 5.407755 0.227003 222 214 222
3.373454 4.966074 0.8176663 106 129 148
3.186072 4.835994 -0.3470895 205 186 180
2.488661 6.203585 0.6905046 24 12 0
5.186658 5.437574 0.5487067 57 60 65
5.331617 2.947636 1.131197 90 129 32
5.186453 2.762686 0.5795758 98 85 65
5.803194 2.712213 1.186494 65 85 16
5.364614 2.559291 0.9653241 164 174 82
5.484064 2.615753 1.201792 24 28 16
5.84028 2.417055 1.228063 65 72 74
5.401272 2.346006 2.187503 57 68 74
4.572985 1.601583 0.7801321 106 97 0
5.259785 1.966306 1.15527 57 60 65
5.243701 2.771186 1.002929 74 89 8
4.142598 1.484663 0.7879935 139 141 32
5.889932 2.253834 -0.3102214 57 125 115
5.625902 1.932384 -2.346255E-05 41 117 106
5.530063 1.987417 -0.09745238 197 206 222
6.525406 2.839262 -0.3713786 164 182 123
5.391761 2.954378 0.8339311 123 129 57
6.88597 3.927624 0.7005454 0 12 8
5.223206 2.841921 0.3025181 205 206 213
6.946119 3.342728 1.66428 24 24 16
5.006985 2.655511 0.9072539 164 186 98
4.027383 1.240751 1.08579 98 125 41
4.347006 1.438828 1.066102 74 105 0
5.364779 1.699703 0.5794483 156 170 180
5.899835 4.121198 2.196593 49 76 65
6.713275 3.600974 0.5925456 0 8 8
6.444811 2.733585 -0.3895236 222 214 197
6.441509 3.326084 -0.4154109 156 153 139
6.983404 4.354825 -0.197632 24 44 41
5.970438 2.462344 2.045108 49 68 65
5.135695 1.890854 1.819019 123 121 131
5.547653 1.924216 0.554462 156 174 180
6.055311 3.296492 3.173812 197 202 230
6.172692 3.963088 2.902234 123 145 156
6.172287 3.076307 2.894863 197 202 205
6.597497 4.252603 2.13904 57 64 65
6.603478 4.245861 0.4991583 16 20 24
6.664303 4.189154 1.621342 74 72 57
6.31963 3.335596 2.448319 246 246 255
6.46033 4.352077 1.45348 32 40 49
6.246292 3.207103 2.815318 197 194 197
5.396673 4.577435 2.018528 98 145 148
4.356985 3.854285 1.136976 123 145 82
5.823798 4.988455 0.9403005 65 48 8
4.20684 3.947247 1.136024 57 68 16
4.001169 4.42977 1.140567 57 80 41
5.247089 4.231143 1.188345 32 36 41
6.418124 4.507706 1.621945 32 44 49
5.852448 4.246648 1.323591 148 170 189
5.464834 4.861992 2.319726 49 80 65
5.58313 4.338138 0.4244547 164 157 148
5.703137 4.243387 0.5607454 24 32 32
4.254593 4.317276 1.515802 49 85 41
4.438967 4.025751 1.091887 32 48 8
6.553908 4.503658 0.6808635 90 109 115
5.334408 4.669044 0.5645505 230 218 230
6.447084 3.031167 -0.2848217 49 109 98
1.994003 1.43693 -0.3739521 82 121 82
3.318613 1.465347 -0.4324007 98 133 98
5.620963 4.320526 0.9668761 238 246 246
5.777817 4.448626 -0.3406046 131 125 115
6.184197 4.425564 0.4551059 148 153 164
6.435273 3.416403 2.421507 164 190 213
4.96701 2.810615 1.006735 98 125 24
5.033245 2.911169 1.001446 156 182 98
5.402177 2.916978 0.144496 65 85 98
5.548945 1.874701 0.06053743 16 44 41
5.73476 2.029435 -0.05803792 41 129 123
4.919839 1.600693 0.8320836 57 60 0
5.791558 1.586932 1.722783 82 89 74
5.456592 1.829103 0.03270461 0 20 16
1.42122 1.189772 0.4424689 189 178 172
5.930712 4.288038 2.257682 57 68 65
6.192369 4.528797 1.557783 8 28 24
6.409882 4.524808 1.582992 8 24 24
6.167612 3.179295 2.876928 139 133 123
2.526736 5.953315 1.373813 65 93 8
3.961374 4.920055 0.4512027 49 36 32
3.855869 4.833846 1.121927 57 72 49
2.76492 5.948361 0.5940936 16 20 16
3.322899 4.942621 1.100951 57 89 32
4.716847 3.942433 1.369769 131 157 123
3.335002 4.978194 1.353284 164 190 139
3.294449 5.460114 0.2134811 222 214 222
2.172877 6.068443 1.337098 74 109 24
2.640947 5.495388 0.7738671 98 105 57
6.731701 4.146088 1.521949 16 24 24
2.356357 5.891239 1.109227 98 145 74
1.054019 2.8297 -0.350843 98 137 98
3.628046 5.042607 0.7144499 24 28 24
4.145717 5.276542 1.964518 139 109 41
2.340795 6.557841 -0.2180698 16 20 16
1.012493 2.94539 -0.3443454 139 182 156
0.8024824 2.267394 -0.3700918 115 145 115
1.562094 3.431823 -0.359717 115 145 115
2.125608 7.606925 1.838512 90 89 65
2.141508 6.960223 0.600979 131 129 123
0.9522607 2.778035 -0.3489144 164 202 172
1.974077 3.636241 -0.488924 82 133 82
4.169966 1.404623 0.8795282 197 206 131
6.495088 3.502989 0.4362862 16 20 16
6.748951 4.300466 -0.1156 24 36 24
4.208601 3.272361 -0.3974928 90 141 82
3.744787 4.601803 1.36592 65 89 0
2.950048 6.719197 2.217381 172 194 222
2.664821 1.768066 -0.28904 98 125 98
5.11485 5.192605 2.111121 238 206 123
5.17159 5.64393 0.1168127 24 28 16
4.020702 4.642966 1.404413 90 109 65
4.902412 2.284892 -0.6209088 90 133 90
5.540656 1.944186 0.5642949 156 170 180
6.437344 4.509778 1.613935 41 52 49
5.049987 1.682954 2.665974 255 242 246
2.975268 7.67289 2.77683 106 85 82
1.909289 6.868285 0.9252967 16 20 0
2.54392 5.391862 -0.3251616 197 186 180
1.128002 3.019349 -0.3448185 148 186 164
5.828475 3.93991 2.250578 123 93 0
5.897226 4.849543 0.04497778 8 24 24
6.205424 4.081672 0.4202461 24 20 24
1.326413 1.594248 -0.3619456 139 178 156
3.434343 6.664836 2.48305 24 28 41
0.8881907 2.043986 -0.3566389 148 182 164
3.726364 6.520331 0.0892507 8 32 24
2.964948 6.906687 -0.01549922 82 113 106
5.775159 4.471069 -0.308089 49 52 57
3.176131 6.859365 2.493908 16 28 41
5.989948 4.654216 -0.357237 148 145 148
2.384797 5.94031 0.3451706 205 186 180
6.29367 3.545908 1.720695 246 234 238
3.496921 6.683556 0.08570982 0 32 16
6.58538 3.611845 -0.4406357 197 194 197
4.491559 2.373887 -0.2147984 49 125 115
5.880439 2.266464 0.05577724 24 28 24
6.456793 3.57614 2.745434 246 242 246
6.380908 3.481994 2.013427 90 101 115
6.904553 3.990555 2.294164 41 44 32
5.05155 5.335835 0.489254 8 20 24
2.259494 6.209937 1.49139 106 97 74
2.319196 5.629805 1.029831 49 76 32
4.295002 5.939992 2.440248 148 117 57
4.541048 4.974058 1.513324 24 80 49
3.557954 4.993396 0.8424566 57 60 32
3.703434 4.723634 0.8411569 90 117 74
2.282498 5.919371 1.279293 156 186 123
2.928972 5.548023 1.325102 49 85 41
2.68797 5.368269 1.034437 74 97 41
2.46466 6.169425 0.2591203 82 64 49
3.634178 8.056946 -0.01836464 90 125 123
2.831684 5.5269 0.9039646 131 137 123
3.079222 4.919945 1.012111 148 165 74
2.759626 5.702522 1.173963 74 105 98
2.278821 5.757105 0.113527 32 28 24
2.983011 4.90571 1.005609 180 182 82
2.450335 5.969712 0.5814301 0 8 0
3.111343 5.324629 0.524044 106 109 98
4.017316 4.746334 0.3489534 106 117 74
4.044213 4.773637 1.149107 106 141 74
4.212432 4.744411 1.231024 16 28 16
1.772823 4.339356 -0.3592026 164 198 172
2.375947 2.866771 -0.2897014 82 133 82
4.173085 4.785814 0.4596074 57 76 65
3.922367 5.361668 0.5637616 8 12 8
5.1556 5.309832 -0.6796666 74 129 82
4.085174 5.377709 2.069327 41 48 41
3.736004 4.736042 0.2789359 115 113 98
2.643004 5.765468 1.441719 115 165 74
2.960205 4.944273 0.3431811 213 198 197
3.260284 5.388571 0.2173176 197 198 189
4.731934 5.063753 0.2028502 49 64 74
1.958578 5.785038 1.248307 74 93 57
2.795027 6.183203 1.03756 49 64 32
2.204542 5.783054 0.2936934 172 170 156
2.196461 5.610713 0.1116012 32 28 24
2.217371 5.746874 1.277864 123 161 90
2.253559 5.850845 1.445637 156 182 131
3.234671 7.095333 0.7855371 24 36 8
2.552812 5.598648 0.8233451 106 133 41
3.268274 6.374255 -0.09192824 8 48 41
3.372916 6.240183 0.7344283 24 32 8
2.767552 5.173775 1.028258 90 125 57
2.536959 5.230189 -0.3339889 189 182 172
3.378803 6.144511 -0.115292 74 101 98
3.182459 6.611023 -0.004353621 8 40 24
3.993025 5.302289 2.300193 148 113 0
4.33108 4.965834 0.6377005 16 36 16
5.091286 5.451021 2.140903 189 153 90
3.529179 5.357068 0.1309709 65 12 16
3.17087 5.485391 1.872824 213 97 131
3.121733 4.790655 -0.3211295 205 190 189
4.341866 5.468334 2.425306 148 113 0
4.608203 4.715272 1.396963 57 80 8
3.554082 4.79019 0.7574545 106 113 49
4.107579 5.136105 2.018224 205 218 230
2.529768 6.315548 0.08272284 8 24 16
2.721366 5.124381 -0.3420897 213 194 189
3.918271 5.417134 0.743754 32 36 8
6.093574 1.256383 2.666325 32 68 82
4.0946 0.9995897 0.9565642 57 72 8
4.36107 1.147968 0.8498049 222 214 205
4.123901 1.049837 1.003554 49 80 0
5.495582 2.076771 0.5065739 32 40 49
4.214145 0.9616225 1.048822 164 186 106
4.348434 0.8957093 0.7266131 148 145 57
4.746184 1.632562 1.116478 106 141 49
4.321971 0.9998488 0.767975 65 68 0
6.797246 3.739554 2.055014 106 117 139
6.38923 0.9611352 2.292949 189 206 189
6.274457 3.016434 2.111181 41 48 41
5.324303 3.089742 0.9345014 148 170 74
4.302337 1.33811 1.105591 90 125 24
4.075981 1.365068 0.7737122 148 153 65
4.095438 0.8834154 0.8302298 123 125 41
4.406996 1.098895 2.158724 123 161 189
4.609397 0.5987782 0.1441863 0 16 16
4.018495 1.124869 0.9450496 57 89 8
5.187362 2.673379 1.181663 49 56 32
5.636002 1.731335 -0.3376866 49 89 82
4.893376 1.27116 -0.3946917 172 174 156
4.771523 0.5828877 -0.1817531 49 109 106
5.402273 1.806656 -0.0700295 32 85 82
3.947971 1.028916 0.9886429 123 145 57
4.085874 1.068348 1.074813 57 97 0
4.002245 1.40208 -0.3806043 222 182 156
2.216747 0.669018 -0.3766067 139 165 148
3.240067 -0.08695637 1.00442 49 80 0
3.035572 -0.1715743 0.7408501 65 68 0
2.957269 -0.6382304 0.7280631 123 109 0
2.938226 -0.5470152 0.7895901 123 121 16
3.68895 -0.4232897 0.2575171 230 226 230
3.211085 -0.3980062 0.5960062 65 56 41
2.962261 -0.1755639 0.8928865 57 80 0
3.247494 -0.3918802 0.6041229 16 16 0
4.347539 -0.1728024 0.05418622 16 36 24
4.296993 -0.2325892 -0.08688559 41 101 82
3.727909 -0.5444034 -0.3492016 148 133 123
3.559814 -0.2564436 1.507901 106 137 172
3.216275 -0.3033152 0.6794468 16 16 8
4.258767 -0.3155356 0.01001358 148 161 164
2.985018 -0.2924154 0.9229971 123 137 8
3.402684 -0.5466912 1.448439 82 97 74
4.026113 1.204626 0.8707579 65 85 24
4.388645 0.6492398 0.0753567 32 60 49
4.516253 0.3300907 1.327523 172 190 197
4.942671 1.122399 0.5572374 238 230 230
4.625478 0.9627535 1.422387 98 105 123
4.202936 1.000544 0.9158356 57 85 24
3.041942 -0.1280392 0.9400356 131 145 57
3.243509 -0.3554784 0.6103554 24 20 8
4.595412 -0.006176454 0.5158432 123 44 57
4.493605 0.3220379 -0.1217976 213 226 230
4.012762 0.1257918 1.244019 148 182 205
3.137133 1.457725 -0.4003271 98 145 115
4.620374 -0.5326115 -0.343438 0 109 106
4.410707 -0.1950108 -0.06397066 8 16 16
5.18207 0.2471259 0.6283967 90 113 131
4.151082 -0.1553318 0.02310484 156 153 164
4.22922 -0.1776934 0.007079105 172 182 189
4.557299 -0.2136873 -0.3300051 32 64 65
3.080178 -0.3761876 0.8910296 57 76 16
4.628212 1.130407 1.438132 82 97 74
2.85384 -0.4923115 0.775627 82 93 0
2.974555 -0.2773913 0.9796877 65 93 8
2.889715 -0.4523218 0.8885664 65 89 0
4.630199 0.3001742 1.341901 148 182 197
4.705288 0.2373779 -0.2359126 82 56 57
4.94846 1.003388 2.285447 172 178 189
3.885609 -0.3399629 0.4802707 131 44 65
3.525322 -0.6083776 0.5532357 230 222 230
3.711165 -0.6257135 1.464323 41 40 32
4.199817 -0.3106188 -0.01061028 230 222 230
3.211459 -0.3543408 0.7594804 57 48 0
2.804987 -0.2903592 0.906946 49 72 0
3.068023 -0.1731818 0.7940704 98 97 0
3.031502 -0.140832 0.7938259 139 133 24
3.688258 -0.5327777 -0.1854639 156 145 139
3.13624 -0.1714574 1.059491 106 153 0
3.387185 -0.3800989 0.4048158 65 48 24
3.052033 -0.1958914 0.8549479 222 202 115
3.625943 -0.5069792 -0.1096086 82 72 65
3.229655 -0.1197967 0.7433153 115 105 49
6.198408 3.783931 2.905497 205 218 230
6.199706 2.272258 2.757959 189 198 205
5.990964 1.667756 2.913044 156 157 164
6.313041 0.6294315 2.363219 197 194 197
6.102998 4.474304 1.478286 24 52 57
4.167997 1.153146 1.034926 90 117 0
4.223755 0.4703644 1.177331 49 68 41
3.927972 0.03979014 1.16905 74 109 115
3.688127 -0.3214505 1.622442 246 242 246
3.064106 -0.2239999 1.019102 164 198 106
4.175362 0.2261137 0.1733297 0 48 74
3.488389 -0.1375232 0.7801863 74 40 32
2.973112 -0.4931358 0.880547 123 133 0
4.196749 -0.2802305 0.03495789 205 218 213
3.874901 -0.4021477 0.1901398 57 89 90
4.202736 -0.2952329 0.0003374146 16 40 57
3.456218 -0.4442358 0.2862942 123 113 115
3.326268 -0.08292997 1.004334 172 190 8
3.932855 0.5063437 0.8626249 197 194 197
3.054662 -0.1760096 0.9631533 82 109 8
6.381756 0.2157929 2.378121 57 125 172
6.167915 3.627184 2.950747 230 226 246
6.180574 3.890078 2.88075 49 64 106
5.633945 0.2621149 3.129923 197 202 205
4.051001 4.040931 1.123207 49 68 32
4.115668 4.471107 0.7369428 32 44 32
6.464426 4.312749 0.5898336 131 153 164
4.161616 4.464662 0.8130987 98 93 41
5.184298 4.865377 2.148504 255 255 255
4.055606 3.868059 1.170219 82 109 65
4.207761 4.217556 1.472334 74 105 65
1.96813 0.9410363 -0.36585 82 125 82
2.252899 1.697825 -0.4068656 90 133 98
4.298059 0.4144885 1.171056 115 133 82
5.553998 4.13025 0.5378432 24 32 32
4.184828 -0.01911145 0.007601182 156 170 172
2.977994 -0.1611215 1.011381 197 206 156
4.195125 0.3655069 -0.1153847 57 141 131
3.090203 0.4395722 -0.4577579 90 117 90
4.333332 0.3795684 1.909036 131 161 172
3.1422 -0.2316156 1.01756 41 60 0
3.486554 -0.4782864 0.1624026 213 226 246
4.411452 0.1521522 -0.1190954 172 194 213
4.733587 0.07731684 -0.3470417 32 80 82
4.238468 -0.3318041 -0.03148581 8 16 16
3.314687 -0.3544218 0.3262173 197 186 180
4.353024 -0.05082935 -0.01314567 230 230 230
4.168551 -0.05512205 0.1518111 24 44 41
4.356804 -0.01606771 -0.01182131 213 226 238
4.622896 0.224883 -0.1060628 164 206 222
4.581447 0.473666 2.218005 32 36 41
4.647256 0.3240352 -0.1384647 230 242 246
4.838767 1.191493 -0.1664811 8 52 57
4.29513 0.2015646 -0.1184517 65 56 74
3.702684 -0.5384997 -0.2518025 106 93 82
3.603502 -0.504521 -0.1927285 98 80 65
2.927623 -0.4704811 0.8598068 106 113 0
5.442526 1.955422 -0.06036213 49 125 123
6.638851 3.562845 1.995541 49 56 74
4.221304 0.5296658 -0.2575787 49 48 49
4.111832 -0.05661995 0.1340389 16 40 41
4.407102 -0.3020886 0.01866244 16 56 57
5.116815 5.470009 2.392432 148 105 0
4.683561 4.035892 -0.3062769 189 186 180
4.810679 5.396697 2.223645 74 68 65
3.964447 3.630872 -0.3891877 230 255 238
5.925249 4.581193 2.173755 82 105 106
6.004123 4.456701 2.25733 41 56 57
3.064022 -0.4793763 0.998364 131 149 74
6.030912 4.209359 1.263564 148 165 180
4.932991 1.179915 2.515476 197 202 205
4.597536 0.5290355 1.377599 65 85 49
3.909309 1.356943 0.8955756 180 194 123
6.27747 2.91815 -0.2909487 57 137 123
2.94796 -0.4162088 0.8930603 205 198 115
6.005346 2.47696 1.659064 98 93 82
4.480113 0.9149365 1.018342 106 125 57
4.179524 1.269028 0.918609 74 97 16
6.336723 1.916403 2.450778 65 125 148
6.324914 2.583676 2.369498 41 40 16
6.251643 0.6306579 2.323698 222 214 213
5.888738 1.9125 3.24743 139 161 172
6.8392 4.079941 0.6686869 106 101 82
4.039884 1.405382 0.7187483 139 137 65
4.115316 1.333942 0.9578335 156 170 90
4.477463 1.207262 0.4211623 57 40 32
7.216152 4.147979 2.284724 32 48 49
4.333487 1.244528 0.2531487 238 230 230
6.34807 4.027004 1.080213 230 226 230
4.107999 1.225706 0.9155597 82 109 49
5.156354 1.629857 2.815029 156 157 189
4.751586 0.5581355 2.467935 49 64 57
4.679108 0.5717008 2.57549 115 137 164
6.219223 3.419499 2.536767 139 133 131
5.804432 3.989081 2.098491 65 48 0
6.112305 3.838016 3.119769 222 226 246
6.200737 3.518285 2.533034 57 60 49
6.142374 3.537122 3.132543 222 234 246
6.535655 1.233374 2.061513 8 24 8
6.330784 2.776736 2.391947 32 36 24
5.650481 1.570333 2.290456 0 20 24
5.863431 1.712695 3.221776 205 222 238
6.457541 0.8888708 2.072114 41 44 41
6.202981 3.324908 2.152408 115 214 156
6.754372 4.544145 1.359927 172 190 213
5.333364 2.967515 1.024484 65 89 8
5.770431 2.546017 0.8875698 123 153 164
4.156011 1.117995 1.02982 106 137 32
4.832499 2.898712 0.8647406 172 174 82
5.692942 2.06348 0.02302071 32 101 82
6.741283 4.359794 0.04716747 24 44 41
2.316144 0.9903236 -0.382204 156 182 164
4.589995 0.8575653 1.010915 180 190 189
4.480545 0.6482747 -0.4735895 139 105 65
4.09767 0.9789269 0.933482 82 109 8
4.034379 1.0125 0.9672719 57 80 8
3.790718 0.730968 -0.3985925 139 101 65
3.480352 1.132383 -0.4361936 98 133 98
3.144724 1.138486 -0.5200396 82 129 90
4.143299 1.162447 -0.3443124 139 129 98
5.209542 2.764596 0.2278954 65 56 74
4.879503 2.740393 0.8348728 106 121 8
5.307323 2.737446 0.6184942 41 36 24
5.584281 1.96594 2.423724 74 89 90
5.332274 2.716371 -0.3875924 222 218 222
4.396428 0.965851 0.7684282 98 101 32
1.710338 0.8020911 -0.3845598 148 178 156
3.676571 0.6374655 -0.373018 230 210 197
3.812485 -1.349149 0.748418 16 28 24
3.530435 -1.396774 1.503341 49 44 24
3.039714 -0.3395004 1.025271 131 157 82
3.22131 -0.6001696 0.7801101 74 76 16
4.291667 -1.975907 0.9485994 57 85 90
3.303335 -0.6812883 0.7517438 32 40 24
3.348437 -0.5402874 1.430276 49 60 49
2.78135 -0.2281129 0.9294091 115 133 16
3.026446 -0.6697741 0.7863029 180 178 148
3.110137 -2.145423 0.9924573 65 68 57
3.011056 -1.436845 0.537805 57 68 65
4.841305 -1.961443 -0.07789167 0 4 0
4.303201 -2.458623 -0.200263 16 32 24
3.526086 -1.838798 0.6362789 57 80 82
3.881376 -2.466453 0.07381713 74 72 57
2.849597 -0.6073011 0.656146 24 32 16
3.998269 -2.638272 -0.1124817 32 44 41
3.566555 -1.944316 0.7394117 90 105 98
3.044539 -1.347192 0.5478669 98 129 148
3.291866 -1.311183 0.9248844 16 36 49
4.18857 -2.346967 -0.1560785 8 20 16
4.09325 -2.248276 -0.2563296 65 76 82
3.217469 -0.5351107 1.455015 41 72 82
3.040379 -0.1113783 0.8176821 65 68 8
3.652489 -0.7873831 0.6207464 16 24 16
3.810766 -0.5384281 -0.3513882 90 76 65
3.87461 -2.280889 0.1281469 8 24 16
3.264249 -2.308423 1.141787 230 230 230
6.291697 2.301759 2.378747 65 68 65
3.666389 0.05566865 0.4271005 139 64 90
3.350192 -0.9960567 1.982391 139 113 16
3.11094 -0.4650569 1.723953 205 198 197
3.020788 -0.3403373 0.8717032 115 137 74
3.612597 -0.6890609 1.927542 65 64 65
3.481904 -0.3527344 1.849123 197 198 197
3.808558 -0.3153678 2.3377 131 157 172
3.190325 -0.3337383 0.8516304 49 64 24
3.09934 -1.442952 1.922102 16 40 41
5.861878 1.863938 3.255651 65 97 106
4.750444 1.585058 1.833453 123 149 164
3.259953 -0.7442232 0.9042488 189 186 164
3.869555 -2.240578 -0.1848281 16 20 16
4.44459 -1.879191 0.1484804 24 28 24
3.190757 -1.417696 1.300022 115 145 156
3.428702 -0.213552 1.728829 32 80 115
2.993989 -0.2294433 0.910274 148 157 32
4.170589 -0.1667716 -0.3100553 32 64 65
3.159495 -1.229726 1.602747 8 68 82
3.929843 -1.365052 0.7770453 41 48 49
3.923243 -0.07514598 1.659751 213 210 213
3.768586 -1.269995 0.6472978 24 36 32
3.120564 -1.714343 0.331365 189 186 189
3.54843 -0.9229708 -0.3605837 164 170 180
4.410679 0.1955155 1.00387 238 238 238
5.213727 0.6783932 1.758282 90 101 74
1.947125 -1.615592 1.06458 57 24 24
1.59302 -1.557724 0.8573266 41 44 16
1.916263 -1.667173 0.829434 57 80 24
1.522443 -1.638666 0.9218034 41 64 8
1.429415 -1.723713 0.8593541 49 64 8
1.958039 -1.696678 1.098331 115 125 65
1.787877 -1.522709 0.9049497 90 105 0
1.863976 -1.786479 0.6479103 49 44 41
1.961292 -1.86727 0.2255175 90 68 65
1.825525 -1.5224 0.9240747 74 93 0
1.897684 -1.911332 0.332817 164 157 156
2.357846 -2.440095 0.2053295 32 56 65
2.370111 -2.621021 0.634144 16 24 24
2.05542 -1.815794 0.838331 49 64 24
1.781801 -1.553295 0.896986 123 133 32
1.978764 -1.841779 0.6167607 49 48 41
2.796113 -1.986284 0.2782843 189 182 180
2.06419 -1.582175 0.9330984 148 149 82
4.588066 -3.227301 -0.2841991 49 52 41
2.549297 -2.063301 0.555225 164 161 164
2.731952 -2.281996 -0.1648097 8 20 0
2.007083 -1.998452 0.124766 8 12 0
1.997859 -1.836292 0.235747 172 170 164
2.163789 -2.678939 0.2634299 164 161 164
1.29626 -0.8060009 -0.3128697 90 133 90
2.157172 -2.936617 1.328664 106 121 148
1.622661 -2.186543 0.8341722 189 186 180
3.66488 -2.116489 1.544167 49 113 148
2.421597 -1.872644 1.237726 24 36 32
1.625898 -1.48228 0.8603076 148 157 49
1.658936 -1.503576 0.9462304 57 93 0
2.063513 -1.924163 -0.1745667 106 97 98
2.934898 -1.830252 1.265835 57 68 41
3.394141 -2.390752 1.831029 57 60 57
1.650168 -1.568332 0.9588326 106 137 41
3.993386 -1.388494 0.1354424 32 40 32
3.919825 -0.4032313 0.1434139 16 64 49
2.702874 -0.1568428 0.7332216 197 186 90
3.452068 -1.488164 2.087985 115 149 156
3.653385 -1.082482 1.385854 32 52 32
3.350219 -1.646235 1.315827 82 101 98
3.463113 -1.967106 2.331054 106 85 32
2.738542 -0.3756228 0.7951386 123 129 16
2.939173 -0.4225943 0.7933472 57 64 0
3.389532 -0.02013375 0.9206777 115 113 0
3.378737 -0.3818875 0.4450969 57 40 32
4.27543 -0.3204084 0.07037191 16 28 32
3.194183 -0.7817548 1.447625 57 64 49
2.993402 -0.4234704 0.9567282 98 121 0
1.984543 -1.612417 1.039813 90 117 0
3.837689 -0.4114355 0.1398174 106 133 57
2.665052 -0.3885895 0.7572276 98 105 8
2.581704 -0.4052224 -0.3252507 172 129 82
3.097021 -2.131437 0.2378248 90 113 123
3.633192 -1.958549 0.841551 49 68 65
2.826916 -0.0003630223 0.7408604 131 129 24
1.419795 -0.388486 -0.3276781 115 153 106
2.706192 -2.15656 0.6764086 8 8 8
1.610728 -1.712847 0.9548963 115 141 49
1.912671 -1.936191 0.3336089 172 165 172
1.780378 -1.52132 0.9551928 90 121 24
1.713248 -1.620787 1.027012 106 129 32
2.135855 -1.555923 0.8550693 197 194 197
3.532392 -1.045448 0.2169678 106 125 131
3.82893 -2.428551 -0.1665216 74 80 74
3.197716 -0.9148822 -0.4464367 82 56 41
1.289394 -0.6712047 -0.3198763 90 141 90
2.894168 -2.512173 0.6439114 57 56 57
3.581519 -0.6838825 0.2181985 74 109 98
3.120104 -1.267271 1.595791 139 182 213
4.020566 -0.3067823 0.7481609 16 28 24
1.239036 -0.9059367 -0.306929 90 133 90
1.636658 -1.580127 0.896073 32 48 16
3.985907 -2.546341 -0.253454 90 97 90
4.003606 -2.470797 -0.2494188 41 52 49
1.913015 -1.851887 0.3119676 106 93 82
2.248279 -2.607549 0.4612073 90 109 123
1.771071 -1.674956 1.09034 41 28 24
2.770756 -1.887492 1.68953 189 194 197
2.707476 -1.765141 1.566097 90 137 164
1.614766 -1.467558 0.8114974 115 121 0
3.187485 -1.4949 1.219184 172 186 197
3.44703 -1.869871 0.2385285 115 121 131
2.821269 -2.267587 -0.2450407 41 44 32
2.760535 -2.360926 -0.229752 65 60 57
3.376136 -1.147812 0.51691 82 85 82
3.611512 -0.7501857 0.1524893 16 24 16
2.998835 -1.662808 0.4868096 115 109 106
3.840834 -0.5658935 -0.2994245 98 89 82
3.761022 -0.4748467 -0.465057 172 137 106
3.278045 -1.168506 1.276776 164 186 205
3.341632 -0.1703668 0.7222332 74 56 32
3.696356 -0.6465955 -0.4173175 213 206 205
3.016853 -0.146981 0.7841706 131 125 0
3.352134 -1.863764 0.3494639 222 218 222
0.0429401 -4.282087 0.4694957 148 137 115
-0.0584005 -3.995176 0.8171256 106 101 90
0.1939142 -4.917203 0.579791 32 36 32
-0.3135898 -2.36129 0.0686843 24 48 8
0.1721618 -4.18697 0.4408861 156 137 123
0.1765971 -4.441657 0.813552 74 68 57
0.06378342 -4.273581 0.7998691 32 32 32
0.1530881 -4.565207 0.8701583 82 76 74
2.869223 -2.01871 0.8345342 24 28 24
3.074425 -2.630769 0.8637192 57 52 41
2.208865 -1.739799 0.8554587 82 89 0
1.601144 -5.510011 1.194649 24 28 24
2.250791 -2.607896 0.5875744 82 105 115
2.985296 -2.18269 -0.3271776 82 97 82
2.058365 -1.889931 -0.3150188 106 101 98
1.85189 -1.828789 0.5601456 24 16 16
2.140863 -3.96466 1.844287 65 56 57
1.566571 -2.297611 -0.297316 148 149 156
1.8575 -3.54367 0.6252155 139 141 139
1.95874 -2.176179 0.740971 49 44 32
1.229771 -1.80729 -0.3814296 90 141 90
1.326218 -1.854426 -0.3844816 98 153 98
0.4678522 -1.837495 -0.4077495 106 149 98
0.1969317 -1.869343 -0.441521 98 141 106
2.083373 -2.212134 0.8258525 139 161 164
1.861237 -3.420958 1.737932 180 182 180
1.190683 -2.194817 -0.3058882 82 52 41
1.536216 -1.733678 0.7147151 57 56 24
1.615528 -1.499753 0.9706359 123 145 57
3.004489 -2.728971 0.1373177 8 16 8
1.918953 -1.87481 0.3051624 41 32 24
1.629353 -1.692333 0.9537638 82 113 24
2.32369 -2.158221 0.4334586 74 76 65
-0.3962648 -1.526365 -0.2330023 213 202 205
-0.3920006 -1.506663 -0.2324603 222 206 205
-0.3404469 -1.359 -0.2396571 180 194 230
-0.2880313 -1.308651 -0.3785206 0 68 164
-0.2883629 -1.304532 -0.3474374 0 60 172
-0.2666872 -1.376999 -0.3092327 131 76 74
-0.3170886 -1.217411 -0.3042723 8 76 213
-0.1909002 -2.215843 -0.129796 197 194 24
-0.2342613 -2.048598 0.4338391 115 109 131
-0.2747863 -1.860835 -0.09943064 0 12 0
-0.2751387 -1.21725 -0.3352031 16 60 180
-0.2818737 -1.209108 -0.3443093 0 80 205
-0.323195 -1.282042 -0.2147402 180 182 189
-0.2776017 -1.245553 -0.3094093 8 60 197
2.715143 -4.954312 0.921146 57 64 57
0.117027 -1.63545 -0.3523234 205 68 57
-0.7333027 -1.645077 -0.2797666 172 165 164
-0.7615309 -1.491182 -0.2661859 164 153 156
-0.1357346 0.0181298 -0.02500551 16 16 16
-2.097891 -3.192763 -0.2978322 189 186 189
-3.126342 -10.31102 0.6013678 32 32 32
-0.6265944 -1.66708 -0.2710075 164 161 148
-0.3335451 -1.286698 0.09361203 49 52 41
-2.049309 -3.141271 0.5079734 164 153 139
-2.057994 -3.01342 1.505665 32 32 41
-3.293508 -11.16213 0.6386518 24 28 24
-2.057586 -4.419637 0.9409221 24 28 24
-2.031377 -3.085031 1.52298 24 32 32
-0.6980941 -1.672176 -0.2808684 172 165 164
-0.1180056 -1.973591 -0.3617776 230 222 213
-2.091553 -2.990087 1.351184 41 40 41
0.1518602 -4.189945 1.004179 24 28 24
0.1989942 -3.084567 1.646492 57 72 82
-0.2662334 -1.320269 -0.1917732 222 226 230
-1.925729 -2.851104 -0.2429982 172 170 164
-0.6458874 -1.807546 -0.3007925 172 161 164
-0.210966 -1.991458 -0.3422402 180 178 172
-1.246502 -1.874508 0.1778867 90 80 65
-2.317367 -3.291172 0.41626 180 161 139
-2.228095 -3.440892 -0.2898426 180 178 180
-0.9478509 -3.626128 0.696852 8 12 8
-1.82037 -2.757768 0.6948438 16 16 16
-4.095849 -3.205852 0.9195661 65 97 106
-4.973207 -5.618538 1.521054 8 12 8
-4.342332 -3.110176 0.5461372 0 8 0
-3.743996 -3.704993 1.025882 65 89 82
-4.607623 -2.883364 0.7849873 123 161 156
-4.08221 -3.251032 0.792423 123 153 156
-5.958329 -4.560249 -0.4430663 189 198 197
-4.122599 -3.238173 0.8450741 115 153 156
-5.992473 -4.599176 0.4231957 230 234 238
-5.318879 -3.554206 -0.1771436 115 153 164
-4.386066 -3.037727 1.236672 139 97 57
-4.00411 -3.268326 1.067831 98 137 139
-4.796833 -3.045075 1.038059 74 85 90
-5.448098 -3.660699 0.001238934 82 113 131
-4.832792 -3.223507 0.02401232 16 20 16
-4.344378 -3.056312 0.7684984 106 117 123
-4.755604 -5.253864 0.1910872 41 56 41
-4.413098 -3.102643 0.9712307 57 80 90
-4.723293 -2.664936 1.46848 16 36 32
-4.337772 -3.04392 0.6985644 156 190 189
-3.968025 -3.360916 1.429342 57 85 90
-4.513865 -2.915456 0.9920146 123 161 164
-4.433129 -3.161847 0.5600289 197 4 0
-4.037917 -3.25445 0.8581423 139 170 172
-4.414218 -3.10404 0.9058085 98 105 115
-4.644818 -2.859102 0.7831292 82 97 106
-4.346096 -3.211764 0.7740908 65 80 82
-4.365132 -3.295274 0.778104 65 76 82
-4.499927 -3.078654 0.9713465 82 113 115
-0.817108 -1.561308 -0.2733152 172 157 156
-0.8119401 -1.579504 -0.2812726 189 178 180
-0.8072279 -1.605846 -0.3413477 172 170 164
-1.14766 -1.454524 -0.2841569 172 165 164
-0.9107076 -1.527356 -0.271141 156 149 139
-3.461901 -4.944008 1.253562 16 16 16
-1.071476 -3.879962 0.7488254 8 8 8
-1.031258 -1.509768 -0.3747151 164 153 156
-1.518453 -1.339912 -0.3178978 180 174 172
-4.207037 -3.12748 0.8988134 49 52 57
-5.327504 -4.52838 0.375139 24 28 24
-4.280602 -3.186573 0.9715585 65 72 82
-4.512802 -2.962156 0.8044618 90 93 98
-2.830965 -2.441585 -0.1900287 41 40 41
-6.114217 -5.032758 0.1831139 24 24 24
-4.377612 -2.98398 0.9156837 49 60 65
-2.303353 -2.509324 1.437736 32 40 41
-4.145375 -3.317391 0.8399509 82 97 115
-1.996928 -2.508404 -0.2698588 205 202 205
-1.132497 -1.450096 -0.3334848 164 157 156
-4.160655 -3.303694 0.7669577 106 109 115
-4.418704 -3.141484 0.9138895 65 72 82
-1.518179 -1.382477 -0.3293419 180 170 164
-2.234525 -2.402766 1.600275 41 56 57
-4.456004 -3.059812 1.193336 98 48 24
-4.803267 -2.690372 1.465214 24 28 32
-4.469944 -3.090855 1.066506 74 89 90
-4.145687 -3.333779 0.7613572 74 80 90
-5.304156 -3.683828 -0.2818323 32 48 41
-4.224707 -3.079258 1.100316 74 85 82
-3.560304 -4.13574 1.389485 24 24 24
-3.468735 -4.084446 1.469814 41 40 41
-4.324384 -2.969217 1.230827 98 52 24
-2.964126 -4.133348 0.9135637 148 137 123
-2.02911 -3.090971 1.528459 32 36 32
-4.420444 -2.982317 0.8621291 115 153 156
-4.003534 -4.076009 1.094948 32 40 32
-4.128768 -3.550969 1.622404 49 76 74
-4.077502 -1.517327 1.516672 57 64 65
-4.690363 -2.04931 1.64871 74 101 90
-4.153417 -3.22632 0.7811453 131 174 164
-1.820868 -1.137308 -0.3763165 197 194 189
-6.003946 -4.80498 0.5230664 49 56 41
-1.363854 -1.352252 -0.2946921 172 161 164
-4.416543 -3.074541 0.5509549 197 4 0
-2.759918 -2.349297 -0.08435512 41 64 74
-1.445609 -1.365387 -0.2972042 205 194 197
-4.296394 -1.787241 1.596654 74 117 115
-4.381626 -3.431712 0.7865863 82 89 90
-3.879002 -2.034993 1.462046 41 48 41
-2.134256 -3.069918 0.5070664 172 153 139
-3.452914 -1.53461 -0.2448384 189 186 189
-1.50378 -0.5003148 -0.3792447 98 157 90
-1.507926 -1.380311 -0.4049338 172 170 172
-1.567713 -0.7445011 -0.4436221 115 157 106
-2.692143 -0.9391006 -0.4199988 172 161 164
-5.063259 -2.949141 0.5679361 197 202 189
-4.808309 -2.209592 1.44992 90 133 115
-1.830761 -0.8588762 -0.4481541 222 121 115
-4.76076 -2.106394 0.9034435 164 165 172
-4.348799 -2.886749 1.398297 41 44 41
-4.934356 -2.337063 1.018173 32 36 32
-4.091523 -3.283411 0.7749911 74 101 106
-4.110274 -3.247488 0.7697664 115 145 148
-5.002526 -2.888504 0.1806628 49 72 65
-4.350306 -1.700636 -0.1603783 49 85 106
-4.795243 -2.215101 1.004927 164 194 189
-4.400607 -1.810297 -0.1503477 82 125 148
-5.293856 -2.366973 0.5314773 180 206 205
-5.225007 -3.528997 0.1987869 24 36 24
-4.090168 -3.635472 1.066893 8 32 32
-4.131907 -2.497024 0.9903833 49 64 65
-4.582182 -3.884147 -0.1488602 57 64 65
-3.299338 -4.042371 1.098997 8 12 8
-5.236754 -3.521971 -0.004341533 164 190 205
-4.413675 -3.083352 1.006203 90 97 106
-3.962863 -3.322235 1.043448 90 97 98
0.09624208 -4.756144 0.7762608 49 48 49
-4.492793 -3.154406 1.177893 65 64 65
-4.383724 -3.073094 0.9280623 49 60 65
-4.559214 -3.000277 0.7764803 74 93 98
-1.977475 -2.711988 1.062691 32 36 32
-0.9317971 -1.367905 0.4712439 41 40 41
-3.546426 -2.605846 0.9314309 90 133 131
-0.4651841 -0.08542509 0.1507852 16 20 16
-2.660809 -1.266709 1.748138 90 101 106
-2.569129 -1.395229 0.3803012 90 101 115
-4.032902 -3.260963 0.7697846 123 149 156
-2.601187 -1.44605 1.827064 57 80 90
-4.335375 -5.000349 1.76534 32 32 32
-5.125713 -3.428532 0.3837622 49 68 57
-4.120492 -3.652093 0.8023845 49 56 65
-3.886528 -4.640182 1.575163 16 20 16
-1.187229 -1.682686 0.5775428 32 32 32
-1.341321 -2.592675 2.012242 90 101 115
-4.257436 -3.143754 1.527683 32 32 32
1.977977 -2.260488 0.7819763 49 48 24
2.06729 -3.770983 2.672487 139 157 205
2.467286 -2.738442 2.971448 205 230 246
3.436532 -2.185272 1.637865 41 64 32
2.791913 -1.936539 2.03067 205 206 205
2.23346 -3.956311 0.1653065 16 20 16
2.098407 -2.569341 0.5611334 90 101 115
1.879121 -3.459915 0.642662 16 24 24
2.529173 -2.726432 2.093194 49 64 65
2.265497 -2.512291 0.5535501 8 28 24
1.333525 -1.696983 0.7480164 148 145 115
1.865261 -1.926049 0.5943497 24 24 16
1.749434 -1.609387 1.00052 106 129 32
6.124443 2.969017 3.103952 213 226 246
5.776996 0.5587081 3.04301 65 141 180
5.318653 0.7949085 3.551819 205 226 246
5.956565 -0.03957758 2.829068 24 117 139
6.342933 2.50227 2.202562 32 44 49
11.01215 -3.365302 8.703918 41 85 65
6.1347 3.429238 3.217014 222 230 238
6.188875 -0.3420502 2.880819 49 64 74
5.245235 -0.08279636 3.469397 156 153 156
5.630479 0.1628016 3.09953 123 161 189
6.100209 2.735812 2.951127 230 230 246
6.17055 4.47373 2.350086 16 36 24
5.198344 2.856313 1.113922 180 198 139
6.29585 3.08876 2.526984 255 250 255
5.910313 4.268023 1.265265 148 170 189
3.241393 -0.2638564 1.129661 65 101 0
3.045828 -0.1921728 1.006956 148 178 8
4.288346 0.004813529 0.02968258 205 222 238
3.85931 -0.01363624 1.364597 16 40 32
4.984927 1.693886 0.9838511 65 89 0
3.704008 -1.389809 1.371116 115 141 156
3.412395 -0.3263071 1.822087 205 198 205
3.179062 -0.777729 2.609452 74 97 106
3.211829 -0.7870652 2.602985 74 105 106
3.166944 -0.7843304 2.201899 156 182 197
3.4101 -0.4491015 0.3451379 164 165 164
3.368183 -0.4177812 0.3572249 65 52 49
3.438423 -0.4002065 0.1465869 90 101 49
3.133447 -0.8651167 1.619579 197 202 213
3.524444 -1.038111 0.270718 106 117 139
3.616293 -0.5954356 0.6602803 65 80 90
6.846407 3.599994 0.6423836 16 32 32
3.135571 -0.2958741 0.7284251 106 101 16
3.069932 -0.6138107 0.8241356 115 113 0
3.345824 -0.430885 0.3752566 222 226 238
4.553435 0.06640697 0.4884566 189 186 189
4.111155 -0.2925415 -0.02446851 16 24 24
3.364343 -1.024378 1.894838 172 149 74
3.754817 -1.060547 0.5787171 32 60 57
2.916391 -0.3414399 0.8995436 57 76 0
3.158224 -0.3613008 0.4895922 41 36 32
4.27056 1.12174 0.605413 98 89 65
3.01759 -0.3305984 0.8363452 156 170 74
3.905763 1.119677 0.8368331 197 206 131
2.929388 -0.1515072 0.8199853 213 202 139
3.892397 1.351929 0.7810327 213 202 123
4.213006 1.162424 0.6555165 24 16 0
6.098881 3.647121 3.238968 172 178 180
6.164942 3.626764 2.959068 213 218 230
5.885283 3.035235 3.153474 189 202 222
6.184844 2.046743 2.716464 57 68 74
6.23601 2.902493 2.483622 24 48 57
5.086925 -0.1144725 3.562829 57 85 98
6.146844 3.882402 2.993217 115 129 148
6.174416 1.05617 2.286533 222 210 205
4.998605 1.533391 2.309994 180 206 222
0.9460984 6.804224 1.112768 82 85 32
0.5799158 7.351831 1.52516 82 105 32
1.094703 7.138856 1.298254 115 133 49
1.537627 6.675378 0.2974302 213 194 197
0.6585367 7.191952 1.330777 57 68 8
2.367026 5.913264 0.2729594 213 198 197
2.320723 5.690857 0.9644011 57 68 24
1.009754 7.264389 0.6891226 8 8 0
0.9030219 6.908939 0.8199381 57 60 24
4.172 3.971297 1.148624 41 68 24
3.625073 5.619852 1.781471 213 210 213
4.152121 6.045923 0.5188838 24 32 32
3.386357 5.142071 1.202726 41 72 24
5.720659 5.084137 0.7774997 0 8 0
4.358767 4.396093 1.582899 246 255 255
4.283314 6.151364 0.7417794 0 8 0
2.082114 5.984832 1.055615 49 76 16
2.657828 5.40181 1.106257 57 76 32
4.378776 3.800879 1.161371 139 161 106
0.9419194 6.858519 1.09058 115 113 41
3.385408 6.750459 2.533828 8 44 49
2.583977 5.782833 1.198347 90 121 106
1.134843 6.998384 0.7760106 32 44 24
1.434108 6.593007 1.185768 131 137 8
2.119775 6.840558 1.410194 238 234 230
1.901124 7.11662 0.2725411 213 206 213
1.093413 6.666015 1.195104 123 145 65
1.323938 6.702601 1.33666 115 145 41
0.8588194 8.104955 1.823163 98 101 74
1.4427 6.715641 0.2515956 205 202 205
1.022366 6.937592 0.6603897 65 56 41
2.391075 5.920952 1.518033 115 97 74
3.197726 5.684556 0.8544609 16 36 0
2.091366 4.232161 1.322169 74 97 131
2.99227 7.794193 2.750211 90 56 65
2.390348 5.531979 0.6689569 0 4 0
1.454003 3.295262 1.112936 24 36 41
4.643479 4.349624 0.7792315 106 105 24
2.291335 5.639682 0.7864885 98 117 32
4.353253 4.851711 0.4902515 98 101 65
2.768672 5.498614 1.317921 164 182 131
2.247758 5.568887 0.7950342 24 32 0
3.639392 5.039094 1.304155 41 72 24
6.535035 4.366738 0.5087867 106 129 148
-3.602848 6.586376 1.83994 65 101 0
-3.536707 6.335984 1.738195 32 68 0
-3.30595 6.092597 1.62598 139 170 41
-3.157766 5.499808 1.289079 131 165 74
-3.443362 6.005577 1.702689 131 149 8
-3.685905 5.325358 0.7249756 0 12 0
-3.062172 5.762497 1.410674 16 40 8
-3.591228 5.329279 1.014184 41 76 8
-3.175373 5.665687 0.4703159 0 24 8
-3.95479 6.000331 1.568481 0 40 0
-1.475821 8.604156 1.519525 98 137 82
-3.340969 5.632584 0.4720187 8 32 8
-3.085767 6.358494 1.510309 24 48 24
-3.948346 7.226789 2.273601 57 56 49
-2.992982 6.469876 1.345012 82 105 8
-1.90826 8.009412 1.02525 65 101 57
-4.215088 8.521648 3.296176 255 255 255
-3.17643 5.258414 1.113819 65 97 8
-2.711702 6.299564 0.7111071 24 60 32
-2.81509 8.784189 1.846499 123 137 123
-1.555767 8.21381 1.721936 82 93 65
-1.989488 7.832232 2.163151 246 246 246
-2.814843 8.651327 3.349432 205 214 222
-3.470862 5.550409 1.322195 123 145 41
-3.458094 8.765033 1.476295 8 24 16
-1.250501 8.780942 1.763047 49 93 41
-3.226741 9.135781 1.152142 57 68 65
-2.149756 8.69932 1.109325 32 48 16
-3.096084 6.314862 0.915177 0 12 0
-3.669005 5.669218 0.9602444 32 60 41
-3.022032 8.500121 1.070723 16 24 8
-2.191751 8.017608 1.252285 16 24 16
-2.71945 5.726786 1.097333 74 109 41
-1.003298 8.451029 1.487479 49 80 24
-0.6119474 8.436873 1.496021 16 24 24
0.7817218 6.736591 1.383829 148 145 98
0.1480771 7.762979 0.6002547 8 20 16
-0.03467067 7.458976 1.178955 74 89 32
0.3398764 7.51472 1.337241 238 226 222
-0.2099228 7.649652 0.6068492 16 12 16
0.1920146 7.114391 1.069706 65 80 16
-0.1109035 7.500466 0.8810461 57 56 41
-2.110678 8.655052 2.625613 98 105 82
-2.722275 7.962246 2.645687 24 60 32
-0.6076759 8.688501 2.228375 90 137 164
0.1881696 9.000589 1.769746 32 52 49
-2.739673 6.551601 0.7429611 49 76 49
0.3806015 6.981734 1.144132 82 93 24
-0.3413683 7.636275 0.7776613 32 36 24
0.3607738 6.672002 0.807456 82 93 49
0.5647311 6.490471 0.9696881 115 141 90
0.08680051 7.295694 1.049847 41 44 24
-0.1481862 7.345276 0.9294857 57 68 49
-0.04795707 7.380773 0.9421126 8 20 8
-0.08761826 7.396396 0.8737548 24 28 16
-2.701775 7.081133 1.973133 49 68 32
0.06284694 7.243476 0.9736601 24 24 8
0.461498 7.094611 1.445024 74 80 49
0.7846984 6.372162 1.030046 115 161 82
0.157217 6.976438 1.023557 123 137 90
-1.631061 8.611499 0.9722595 90 105 57
-2.011493 8.209211 2.442336 213 218 180
-0.3365248 7.740346 1.287983 139 174 106
-0.1740915 7.477101 0.9606004 41 52 32
0.634654 6.689438 1.18838 32 36 8
-0.416409 7.650079 0.8976634 82 105 49
-1.323725 8.074046 0.7229752 115 133 57
0.4260876 6.524014 0.9078764 57 52 32
-0.2777653 7.505156 0.8755805 90 109 49
-0.490942 8.396575 0.7164935 8 20 16
-2.040834 8.211806 0.9487584 0 20 8
-2.800728 7.510539 1.938067 8 20 16
-2.562327 8.096121 2.286362 32 32 32
-3.532521 8.148367 2.51645 213 222 222
-3.128771 7.610514 2.054639 32 60 24
-2.831506 5.96694 1.253255 24 52 0
-2.84149 7.981043 2.471693 57 80 41
-3.143999 5.539406 0.4818369 41 72 16
-3.197055 5.00235 1.099208 41 60 0
-3.030018 7.35143 1.992122 32 60 16
-3.075934 6.737202 1.685323 74 101 8
-3.545 5.522596 0.8753485 8 32 16
-3.337745 5.546408 1.443589 90 129 8
-2.149113 7.612493 1.155563 16 36 8
-3.363833 7.315766 2.131516 65 93 24
-2.903235 6.990127 1.83751 115 141 41
-2.871761 5.689264 1.182534 16 36 8
-2.275185 9.965566 2.707153 106 145 172
-3.581759 5.617917 0.9171278 0 12 0
-3.690186 5.610578 0.8594368 16 76 16
-3.193403 5.261249 1.114269 172 178 172
-3.081704 5.397512 1.074978 57 109 8
-2.941792 5.950598 0.5431713 0 12 0
-3.131721 5.783215 0.5674445 0 16 0
-3.237716 5.764026 0.6327412 24 64 24
-4.541195 10.63164 4.300341 246 255 255
-3.2224 5.269841 1.127991 24 44 0
-3.074145 5.421908 1.2654 148 178 24
-3.247724 5.428367 1.287033 74 93 8
-2.02946 7.488686 1.95557 16 40 16
-2.572659 5.858184 1.244981 41 56 8
-3.188641 6.881968 1.842114 115 141 49
0.9892095 7.375975 1.212821 180 170 115
-6.124445 3.075463 2.632802 139 149 139
-7.102565 0.9337921 1.468609 24 56 0
-6.14413 3.655333 2.392736 32 101 139
-7.028372 0.9098845 1.393535 82 105 32
-7.06469 1.542062 1.505944 0 32 0
-7.068833 0.3838001 1.444238 0 40 0
-6.621138 2.103951 3.110716 255 255 255
-5.848705 1.973239 3.484224 189 170 189
-7.031081 0.3059461 1.646553 49 85 16
-7.04059 0.3955067 1.489585 0 36 0
-6.639191 2.68605 2.359402 16 36 41
-6.861166 0.8119345 1.535882 0 48 0
-7.019497 0.3404875 1.575623 16 36 0
-7.224592 1.324969 1.128804 24 68 32
-6.974196 1.184162 1.515552 16 24 0
-6.9796 0.5274992 1.770382 74 113 123
-6.981395 1.014897 1.384289 0 44 0
-6.828783 2.06593 2.298736 0 28 41
-7.024082 1.92607 2.073512 82 72 57
-6.142594 3.154949 2.69529 82 109 115
-6.411492 2.907753 2.862009 255 255 255
-7.305307 1.859373 0.4437359 74 72 65
-6.828525 1.094434 1.448958 16 64 0
-6.752465 3.033818 0.2750589 98 117 123
-7.205204 1.419713 1.238271 24 64 24
-7.433569 1.731233 0.4592354 49 52 32
-7.227264 1.614528 1.364976 65 76 24
-7.41222 1.610342 0.4534539 41 36 16
-7.184797 0.9016709 0.8277401 49 68 0
-7.389629 1.956691 1.211777 74 93 82
-7.544061 3.071878 0.5795738 65 76 82
-7.353803 1.668901 0.9400413 49 56 0
-6.986046 1.352345 1.507526 41 85 24
-7.468652 1.677388 0.4849336 65 64 41
-3.999267 2.01949 0.647471 123 133 148
-7.149852 1.332037 2.020811 0 12 0
-6.922501 2.136871 2.404565 148 149 156
-7.548387 1.306468 0.3608945 74 80 74
-7.472482 1.294657 0.4221148 41 60 41
-7.218983 1.029971 1.344944 139 182 106
-3.623867 5.329776 0.6145111 49 68 41
-3.786656 5.421474 1.019439 16 36 24
-3.958202 5.598981 1.026422 41 64 32
-3.874784 5.637571 0.8923014 8 24 8
-7.058233 0.3690552 1.386923 41 60 32
-5.568268 5.804085 2.215084 230 230 238
-6.613359 3.925813 0.381195 172 186 189
-5.359231 5.717491 0.5497805 90 24 41
-7.014439 1.798825 2.413092 131 145 148
-6.745531 4.621859 1.066101 32 36 32
-5.099161 6.260968 2.06536 98 137 65
-5.580805 5.372014 1.049877 74 109 123
-5.455466 5.804026 1.070723 57 93 123
-4.612031 7.894667 2.72801 148 178 197
-7.295603 0.8888079 0.6099584 16 40 0
-5.967698 2.202887 2.783453 246 250 255
-6.912603 0.761214 1.798323 123 129 131
-7.084208 1.567635 1.435385 0 32 0
-6.970079 1.037031 1.602283 65 93 24
-6.717398 1.497095 2.158927 41 105 131
-7.104337 1.50644 1.449697 24 48 8
-6.928228 1.471792 1.676217 106 117 131
-7.122557 1.107415 1.157197 0 40 0
-7.094024 0.8120647 0.9187452 0 24 0
-7.02769 1.102455 1.358624 8 36 0
-6.748004 0.1764694 2.62224 57 121 139
-7.168174 0.9294739 1.031112 49 68 8
-7.22567 1.226479 1.016424 90 72 24
-6.990803 1.462901 1.633056 189 198 197
-6.965386 0.2202589 1.534003 106 121 82
-6.973135 0.1908458 1.40527 106 129 106
-6.882035 0.8098425 1.216256 8 20 0
-6.036386 2.931509 2.63302 230 250 255
-7.038846 0.720086 1.256941 32 48 0
-6.862713 0.9676902 1.940933 16 40 41
-6.902987 2.71344 1.803432 148 141 148
-7.298173 1.324413 0.984512 0 12 0
-7.013628 0.4527088 1.28172 57 76 24
-7.103783 0.8127177 1.187427 82 89 32
-6.805812 1.431676 2.168785 57 105 123
-7.192172 1.038456 1.107646 0 36 0
-7.233956 0.8233902 0.7343097 65 76 16
-6.956352 1.132982 1.765234 189 206 222
-7.196293 1.126207 1.057958 16 44 41
-6.283399 3.333024 2.382098 32 105 131
-7.170643 1.85763 1.439972 49 72 41
-7.289995 0.7947108 0.3259143 8 20 8
-7.180067 1.124023 1.094983 16 32 24
-6.930854 1.024186 1.684418 32 89 57
-7.270331 0.8160995 0.5003188 82 72 49
-7.010125 0.6486093 1.260139 16 28 8
-7.155792 1.229569 1.124995 41 76 24
-6.977247 0.1221522 1.197963 115 109 90
-6.701224 0.7781287 2.150055 41 60 49
-6.682586 0.9145579 1.557235 24 60 8
-7.196339 1.423567 1.238446 57 97 49
-6.934469 1.234976 1.765044 8 20 16
-7.096429 0.4374695 1.227072 8 20 0
-7.100483 0.8888825 1.210102 41 52 16
-7.177236 0.6459237 0.923638 0 12 0
-7.056397 0.5149297 1.168652 106 121 131
-7.203756 1.065196 1.52827 24 60 0
-7.230163 1.769435 1.355306 24 76 74
-7.030487 1.087634 1.510319 0 52 0
-6.977935 0.5063157 1.257439 8 32 8
-7.123687 1.051076 1.230306 16 44 0
-6.908537 1.769887 1.863721 57 93 98
-7.019158 0.1592685 1.105421 8 32 8
-7.230517 1.012006 1.00351 57 85 8
-6.937697 0.6613114 1.807685 139 149 148
-7.044742 1.055267 1.372437 16 44 8
-7.124577 0.9804212 1.126904 0 16 0
-7.130253 1.116137 1.219763 16 60 16
-6.911399 1.20821 1.781096 0 16 16
-6.138469 2.612902 2.597192 246 255 255
-7.13611 1.377385 1.217395 49 85 32
-6.950075 0.2067314 1.179611 139 141 156
-6.952181 0.8221157 1.39395 49 89 32
-6.155398 2.691644 2.625404 246 246 255
-7.001682 1.175652 1.630238 41 68 24
-7.038655 0.4741662 1.210804 57 80 49
-6.889428 1.163048 1.73985 24 36 49
-7.203663 1.195652 1.037838 8 40 0
-6.780368 0.1453336 0.8284827 32 32 16
-7.610278 -1.59089 2.239402 213 218 222
-6.882196 -0.2608663 1.620099 32 56 24
-7.038991 -0.7179748 1.192203 24 28 16
-6.755307 0.1311863 1.781594 123 137 90
-6.85579 -0.2508681 1.346452 172 157 98
-7.227335 -0.9650557 2.007159 106 117 98
-7.228312 -1.035365 1.599551 65 72 32
-6.731662 -0.5718312 2.782156 115 125 115
-7.151013 -0.01346001 0.7310546 180 170 82
-6.298808 3.049003 2.985005 164 174 189
-6.604132 -0.7119842 0.7342629 115 125 57
-7.195648 -0.1423888 0.5999088 139 121 106
-7.217356 -1.591041 0.5464762 222 222 222
-7.256462 -0.09602448 0.4387285 172 186 180
-7.276731 2.523384 0.1131741 131 121 123
-7.884037 -1.832076 1.187912 16 28 24
-6.634186 -0.9075084 1.573261 222 222 222
-6.748083 -0.9637762 1.501845 189 194 180
-6.143136 -2.116357 0.498731 205 198 205
-3.817594 -0.5139564 0.3383612 205 202 197
-6.684369 -0.1400565 1.40203 49 44 24
-6.985194 -0.8049194 1.456204 123 137 74
-6.763427 0.2002449 1.90495 213 214 205
-6.865893 -0.6331989 1.31168 32 40 24
-7.066101 -0.9892834 1.062743 16 20 8
-6.755529 -0.06834463 1.294939 57 68 32
-7.250319 -1.082036 1.821476 65 68 57
-6.772889 -0.2591314 1.946912 16 48 8
-6.701056 0.2914574 1.383414 131 174 98
-7.14162 0.3811684 1.010475 32 36 32
-6.675025 -0.5356811 0.8196999 16 28 8
-7.680217 2.728525 0.3164141 189 174 156
-6.927915 0.4130942 1.774037 41 76 106
-6.848909 0.6425483 2.203089 41 52 65
-6.800148 -0.3253636 1.785837 16 28 16
-7.581022 2.445432 0.8030786 49 52 57
-7.608928 2.249347 0.1561824 131 109 82
-7.338639 1.036407 1.041932 74 101 24
-6.989521 1.457666 2.235535 8 52 98
-6.657818 0.1305161 1.03029 115 113 57
-7.639082 4.141989 1.628971 24 16 32
-7.621742 2.321947 0.2100724 172 141 123
-7.787419 2.406684 0.2843338 164 137 123
-7.718237 2.753044 0.3545646 189 165 139
-5.652264 -0.4403513 2.29909 123 149 139
-2.44327 -1.540684 1.851001 82 101 115
-3.319554 -4.242015 1.386786 172 255 197
-3.211426 -4.201549 1.430855 41 40 41
-6.740559 -1.277358 1.907606 222 214 222
-3.903815 -2.874291 0.995842 131 161 164
-3.408352 -0.9028571 1.807609 57 68 82
-4.26147 -1.834113 1.387739 49 56 49
-4.147599 -3.054319 1.396317 41 80 74
-6.40942 0.01083179 1.378734 49 93 24
-4.016572 -3.243074 0.7840835 139 145 148
-6.103439 -1.828796 0.9460896 90 133 148
-4.69134 -2.681202 1.505504 57 80 74
-4.271114 -1.709977 0.8756987 49 85 90
-2.12867 -3.129078 1.452563 32 28 32
-3.767919 -2.052327 1.360792 65 105 98
1.596986 -4.392644 2.641211 123 157 189
2.785603 -2.378846 2.076659 24 40 41
2.094762 -3.798045 2.751644 189 186 197
1.797093 -4.009729 2.252041 205 190 189
2.710571 -2.197712 2.505945 197 190 197
2.557837 -2.636843 2.945332 123 141 148
1.834504 -4.132788 2.725142 98 121 148
2.447316 -4.360911 1.900024 49 44 41
2.003472 -3.765004 2.688355 189 194 213
2.390516 -2.975042 1.819187 172 186 197
1.743873 -4.063733 2.593824 123 161 197
1.965044 -3.021872 0.6043429 49 52 49
2.089774 -2.874315 0.5944268 98 109 115
2.517697 -2.730082 2.987434 65 85 98
2.849353 -1.901681 2.405793 82 101 106
2.708392 -2.217318 2.106221 205 202 197
2.847457 -2.427592 2.648665 189 198 189
2.967492 -2.38952 1.06678 106 117 49
2.745462 -1.781087 1.898441 74 60 16
-3.884653 5.25007 0.7122785 32 80 16
-3.319664 5.522206 0.2094857 32 40 32
-3.404798 5.493915 0.419962 16 24 16
-3.499646 5.52969 0.5060586 49 60 57
-3.705927 4.979297 0.7224016 74 89 32
-3.070569 5.241503 -0.5972676 74 141 98
-3.459871 5.943797 0.7968172 16 28 24
-3.009151 6.177222 0.6894739 0 16 8
-3.324776 5.584949 0.09660085 16 32 16
-3.756215 5.29926 -0.2616684 123 109 82
-4.051227 5.304451 -0.1074494 82 68 57
-3.73437 5.842365 0.2720157 41 72 49
-1.690344 3.056309 -0.3012929 148 198 164
-1.158232 9.017189 0.3972088 115 113 90
-2.336629 9.323883 0.7240968 0 0 0
-2.189981 7.749628 0.3919954 8 24 8
-1.98168 8.440223 1.148461 57 40 24
-1.263056 8.715637 1.145605 41 56 32
-2.245059 7.780667 0.2489064 98 113 98
-3.365853 5.548934 1.179682 172 182 164
-2.850741 6.67907 1.329742 90 121 24
-2.864099 8.410117 2.333129 32 48 32
-2.7344 7.685962 2.423473 16 60 32
-2.428497 7.470669 1.405334 16 44 16
-0.686748 8.314709 2.047827 57 72 90
-2.35553 8.383534 2.709318 16 48 41
-0.004486601 7.464367 0.9859967 82 101 49
-3.261728 5.257052 1.189934 82 121 8
-3.586617 5.57453 0.6497734 8 8 8
-3.657275 5.440169 0.4891933 16 20 16
-3.805651 5.60384 1.185401 82 97 57
-3.708297 5.422375 0.8610368 24 32 16
-1.452029 8.135653 0.1416791 24 24 24
-1.782082 8.238658 0.9126027 32 44 24
-2.944523 8.257248 0.5988386 16 28 16
-1.117004 8.900832 0.8767773 8 28 16
-2.521755 7.885146 1.42655 8 36 16
-2.455854 7.863828 0.4899915 24 60 8
-3.80987 5.40805 0.7547916 16 40 24
