ply
format ascii 1.0
element vertex 1170
property float x
property float y
property float z
property uchar red
property uchar green
property uchar blue
end_header
-1.39791 0.6005336 0.3221003 90 117 148
-1.37465 0.5872217 0.3996611 98 129 164
-1.206298 1.62615 -0.07519664 82 97 106
-1.204577 1.368199 0.3024395 74 101 131
-0.8858699 1.794185 0.6945716 49 60 82
-1.126053 1.631878 0.2211996 98 129 164
-1.017897 1.815954 0.2983819 115 137 164
-1.277179 1.242092 0.1957625 106 133 164
-1.062015 1.747126 0.2680859 115 141 164
-1.098091 1.781091 0.1149366 90 121 148
-1.32306 1.361991 -0.128121 32 44 57
-1.141468 1.582554 0.230459 90 117 148
-1.089059 1.801931 0.09064121 115 141 172
-1.263114 1.474739 -0.0612937 24 44 49
-0.8856301 1.879109 0.5900077 90 109 123
-1.181429 1.691114 -0.07185306 16 28 49
-1.283893 1.437706 -0.07142284 8 20 24
-1.405884 1.175994 -0.1503504 32 40 49
-0.89746 1.82257 0.6378616 90 129 180
-1.079742 1.802717 0.1120593 65 89 123
-1.207257 1.614094 -0.06665486 0 8 16
-1.241262 1.340875 0.2108816 106 141 172
-1.194971 1.437016 0.2435004 82 113 139
-1.035562 1.784495 0.2755501 115 141 164
-1.251244 1.534611 -0.08540273 8 16 24
-1.171572 1.494569 -0.08511449 24 40 49
-1.089654 1.396864 0.1672511 106 137 164
-1.097687 1.736868 0.151948 90 125 164
-1.211699 1.472695 0.1376793 65 89 115
-1.39562 0.275309 -0.1114788 0 16 16
-1.356318 0.2785685 -0.0218905 57 68 82
-1.142761 0.3156496 -0.1198376 57 68 82
-1.394635 -0.7451763 0.4747128 82 109 148
-1.45492 -0.500028 0.3370453 57 80 115
-1.395224 -0.6694351 0.4896948 41 68 98
-1.38593 -0.6273028 0.5257986 82 117 148
-1.396602 -0.6431962 0.4914596 16 44 74
-1.460292 -0.5095238 0.3278877 57 80 115
-1.4094 -0.5518001 0.4724381 24 48 82
-1.368591 -0.7455241 0.5443924 16 48 74
-1.413787 -0.6111883 0.4496842 24 52 82
-1.450621 -0.4360667 0.3640945 41 52 74
-1.411243 -0.6540177 0.447435 16 48 74
-1.395068 -0.6695585 0.4893859 41 68 98
-1.400072 -0.6265714 0.4849623 82 117 148
-1.377094 -0.7233655 0.5267879 24 52 90
-1.36647 -0.7036196 0.5594919 24 48 82
-1.409271 -0.6990429 0.4440695 16 44 74
-1.397142 -0.6086623 0.4970947 41 68 98
-1.40566 -0.5884899 0.4736647 74 101 131
-1.48209 -0.5290815 0.250077 41 64 90
-1.370477 -0.7164932 0.548131 32 56 82
-1.409063 -0.5190847 0.4783747 16 36 74
-1.487322 -0.5230957 0.2359916 49 76 98
-1.375879 -0.6436361 0.5472647 32 60 90
-1.383569 -0.5692672 0.5418482 24 44 74
-1.388325 -0.6551561 0.5129374 16 48 82
-1.414618 -0.711148 0.425431 16 36 65
-1.411074 -0.7529139 0.4235535 16 44 82
-1.412814 -0.5660594 0.4599791 16 44 74
-1.403156 -0.7358934 0.4512431 82 109 139
-1.39179 -0.6187503 0.5104787 24 48 74
-1.424016 -0.7943281 0.3704252 8 32 65
-1.408265 -0.5982855 0.4682616 24 48 82
-1.427044 -0.4844711 0.425583 115 145 172
-1.38277 -0.6416137 0.5313373 24 56 82
-1.409176 0.2450545 0.4334544 98 125 156
-1.406435 0.1757807 0.4548972 180 206 238
-1.445701 0.2181335 0.3198511 115 137 172
-1.467096 -0.1881777 0.259476 24 36 57
-1.375612 -0.3783078 0.5354722 16 36 65
-1.352758 -0.8282837 0.6501137 16 44 74
-1.367682 -0.5160673 0.5754314 24 48 82
-1.384492 -0.7026253 0.5603456 16 36 57
-1.468348 -0.3129308 0.269648 24 36 57
-1.387575 -0.5684133 0.5338076 131 157 197
-1.365393 -0.8011125 0.6212428 82 101 131
-1.400486 -0.6609589 0.5081568 16 32 65
-1.39501 -0.3102304 0.4929037 98 125 156
-1.364539 -0.7903726 0.6246164 24 44 74
-1.39473 -0.2798016 0.4907767 65 97 123
-1.388422 -0.5525813 0.5263588 16 32 65
-1.507731 -0.04045742 0.04811662 74 101 139
-1.488115 -0.3710997 0.1952989 41 68 98
-1.537501 -0.7267762 0.1233723 41 64 90
-1.599959 -0.638563 -0.1774269 16 24 32
-1.554935 -0.6436553 0.00450556 106 137 172
-1.543082 -0.5834267 0.004646699 115 141 172
-1.555167 -0.4929616 -0.1162423 123 145 180
-1.580836 -0.6847306 -0.09828835 90 117 148
-1.557768 -0.5388815 -0.0919214 74 97 123
-1.569485 -0.7030609 -0.02748132 57 76 106
-1.55943 -0.7305363 0.02846805 49 68 98
-1.557866 -0.6570683 0.007990814 32 52 82
-1.560759 -0.6101631 -0.04035888 32 44 74
-1.541691 -0.5581924 0.0117149 57 80 115
-1.58864 -0.7297433 -0.1012926 24 44 74
-1.47572 -0.2322508 0.2051847 49 64 98
-1.395784 -0.4559478 0.522873 65 85 123
-1.342674 -0.4939723 0.6580825 82 109 131
-1.410717 0.1668861 0.442564 148 178 205
-1.426641 -0.4566423 0.4363019 82 113 156
-1.477453 -0.6500115 0.2529216 32 48 74
-1.428012 -0.7795589 0.36437 90 121 156
-1.388793 -0.7170199 0.4969542 16 40 65
-1.463161 -0.4577804 0.32116 16 28 32
-1.395023 -0.6527266 0.4922893 74 97 131
-1.336414 -0.6564809 0.644874 57 80 98
-1.422952 -0.4364151 0.4455619 8 20 41
-1.342976 -0.4030288 0.6685221 148 174 213
-1.42621 -0.4511846 0.4331463 74 105 139
-1.37271 -0.5052519 0.5420039 65 101 131
-1.416576 -0.5866047 0.4430064 74 105 139
-1.373636 0.6786641 0.3636249 82 105 131
-1.448123 0.2181093 0.3151709 106 133 156
-1.423397 0.1845865 0.4023645 106 137 172
-1.503456 -0.07233114 0.07263992 41 60 90
-1.346879 -0.4474818 0.6454313 49 76 123
-1.376652 -0.6357271 0.550543 74 105 139
-1.335584 -0.6523886 0.6367989 82 109 148
-1.347883 -0.8325556 0.6595528 106 133 164
-1.467107 -0.3297455 0.2822515 32 44 65
-1.410833 -0.7528313 0.4748687 57 80 115
-1.491118 -0.3125747 0.1728151 41 52 82
-1.488562 -0.2322834 0.1640987 32 52 74
-1.554128 -0.4751864 -0.119428 106 125 164
-1.59594 -0.6642129 -0.1476867 90 117 148
-1.578539 -0.7194991 -0.06236939 74 105 131
-1.56322 -0.5579437 -0.09231107 57 80 115
-1.463598 -0.03089191 0.316606 16 20 24
-1.418141 -0.07625644 0.4568008 82 109 139
-1.465849 0.1993129 0.2728758 57 72 90
-1.466445 -0.002049397 0.3127097 8 16 24
-1.41221 0.2307038 0.4290099 139 157 189
-1.351981 0.5241812 0.5321925 57 80 106
-1.39123 0.4637141 0.4131815 49 72 98
-1.372666 0.6280067 0.390885 115 141 180
-1.431639 0.3132621 0.349237 106 133 164
-1.490067 -0.05470388 0.2632387 41 52 74
-1.427781 0.1180484 0.4088562 172 206 238
-1.405105 -0.08114588 0.5007159 49 72 106
-1.490093 -0.1862991 0.2551576 65 85 115
-1.44961 0.1682949 0.330698 180 210 230
-1.393498 0.01145543 0.5193037 98 125 164
-1.448443 0.3354979 0.2901545 131 161 197
-1.488047 -0.2203905 0.2590894 65 85 115
-1.416408 0.5564996 0.2742546 106 141 172
-1.354519 0.3999366 0.5609779 98 129 164
-1.434982 0.6563639 0.1445441 32 52 74
-1.394688 0.517254 0.3718882 106 133 172
-1.383438 0.3806349 0.4784532 82 109 139
-1.451063 0.4477558 0.2274187 65 85 115
-1.440716 0.7034644 0.1345672 16 24 41
-1.4127 0.4929335 0.32265 131 153 180
-1.365501 0.5259799 0.4660175 82 105 139
-1.359508 0.7525679 0.3451863 74 97 131
-1.563275 -0.391812 -0.2335677 90 113 139
-1.583174 -0.3856994 -0.2504449 123 149 189
-1.492876 -0.3211548 0.0880596 115 141 172
-1.550845 -0.614354 0.003941249 57 76 106
-1.411223 -0.7225396 0.4310051 16 40 65
-1.394509 -0.6305333 0.4943484 24 52 82
-1.483374 -0.3043434 0.2500627 49 72 98
-1.481063 -0.373914 0.2532418 49 72 98
-1.404319 -0.6907947 0.4611997 74 101 139
-1.400702 -0.1824365 0.5048222 115 145 180
-1.391157 -0.1146922 0.5256026 106 133 172
-1.375423 -0.6237039 0.5524975 41 64 98
-1.396671 -0.2408915 0.5191918 32 64 98
-1.447813 -0.4360934 0.3625912 32 52 74
-1.484212 -0.1654049 0.2500098 49 68 90
-1.392825 -0.2588926 0.5291754 139 170 205
-1.384712 -0.5221978 0.5405045 74 93 123
-1.3916 -0.3160591 0.5311015 49 76 98
-1.43362 0.3133985 0.341651 98 125 164
-1.477494 -0.3945335 0.2746356 24 44 65
-1.424715 0.1574079 0.4003178 139 170 197
-1.391602 -0.209284 0.5295885 57 89 115
-1.428368 0.3809651 0.3314427 82 109 139
-1.392617 -0.2365355 0.5255238 131 161 197
-1.399906 -0.09410933 0.5043778 41 60 90
-1.506222 -0.5923544 0.1745218 65 89 123
-1.383573 -0.1456522 0.4763732 41 60 98
-1.38939 -0.3717014 0.536054 115 137 180
-1.346746 -0.7617222 0.608727 123 170 222
-1.396015 -0.1452357 0.5173308 32 48 74
-1.401075 -0.2518752 0.5048919 106 129 172
-1.477812 -0.2098033 0.2742748 32 44 65
-1.392807 -0.8068609 0.4710485 74 105 131
-1.397453 -0.7300853 0.4700799 24 52 82
-1.415389 0.3630679 0.37893 115 141 172
-1.346294 -0.6022218 0.6375367 131 170 222
-1.405821 -0.3153706 0.491691 41 72 98
-1.416259 -0.8171471 0.3709626 74 105 139
-1.393665 -0.350826 0.5233507 65 93 123
-1.484186 -0.2869709 0.251903 41 56 82
-1.475566 -0.2684674 0.2779844 32 48 65
-1.477588 -0.4366078 0.2587176 57 85 106
-1.362351 -0.5610698 0.5973752 32 56 82
-1.396495 -0.2253681 0.5188991 32 60 90
-1.345993 -0.3759204 0.6559393 74 101 139
-1.414318 0.2915963 0.4051591 74 97 123
-1.329439 -0.7748975 0.6474512 41 64 106
-1.442662 -0.6916201 0.3379413 49 56 74
-1.408396 -0.3326339 0.4862774 90 117 156
-1.330175 -0.4667222 0.6907786 41 72 98
-1.372669 -0.1914302 0.5857885 32 52 74
-1.47476 -0.07767179 0.270784 32 48 74
-1.400937 -0.5737355 0.4887727 16 44 74
-1.433689 -0.4894122 0.3982351 131 153 197
-1.33436 -0.3907048 0.6855986 156 178 205
-1.389421 -0.3946341 0.5353612 148 174 197
-1.47838 -0.08743631 0.263234 41 60 82
-1.324169 -0.788154 0.6586361 74 101 131
-1.421781 -0.09271932 0.4468668 131 161 189
-1.459514 0.03412704 0.3146677 16 32 49
-1.421028 -0.2351448 0.4465266 148 182 222
-1.464676 -0.3263021 0.2635669 65 85 115
-1.377132 -0.8203287 0.6120705 90 117 148
-1.435522 -0.7010016 0.4349423 82 117 156
-1.663692 -0.7216003 -0.502585 57 76 98
-1.367577 -0.6948327 0.5584127 82 109 148
-1.496198 -0.369168 0.2338386 57 80 106
-1.253715 -0.3492203 0.8609405 16 32 49
-1.06698 -0.454143 1.234603 32 48 65
-1.124501 -0.4618879 1.125697 49 76 106
-1.356002 -0.6878278 0.586288 41 60 90
-1.340207 -0.2044686 0.6541495 41 52 65
-1.354216 -0.2907852 0.6170154 106 137 172
-1.189855 -0.3297672 0.9927342 24 28 32
-1.445797 0.1674806 0.3389196 115 141 180
-1.246584 -0.3000584 0.8871021 24 28 32
-1.127266 -0.1591926 1.128597 49 80 106
-1.387268 -0.6833508 0.5037811 65 97 139
-1.256709 -0.6025403 0.842059 131 170 205
-1.335984 -0.5878797 0.6454195 123 170 222
-1.164126 -0.3655332 1.051071 65 93 123
-1.182257 -0.4806794 1.00712 57 89 123
-1.242412 -0.6119682 0.8632438 74 105 131
-1.164194 -0.359394 1.048569 65 97 131
-1.382941 0.2807797 0.4900703 49 64 90
-1.193333 -0.5893061 0.9754283 82 105 139
-1.201342 -0.2128285 0.9905537 24 32 32
-1.364978 0.5384793 0.4595198 57 89 115
-1.181681 -0.6051074 0.9833256 74 101 131
-1.288175 -0.1493413 0.7758732 41 60 82
-1.108037 -0.2270699 1.169313 32 52 74
-1.051263 -0.4202137 1.262294 41 56 74
-1.18902 -0.5722175 0.9932475 16 20 24
-1.294853 -0.4432398 0.7551691 106 133 172
-1.190162 -0.6583334 0.9685697 82 105 139
-1.243593 -0.3729251 0.881304 123 149 189
-1.296626 -0.6585939 0.7357824 49 76 106
-1.15799 -0.5238808 1.055496 16 24 32
-1.232202 -0.2741276 0.9216563 16 24 32
-1.254668 -0.166875 0.8555213 90 121 156
-1.401389 -0.5613713 0.4855177 74 105 148
-1.431937 0.4726951 0.288593 123 145 180
-1.194824 -0.6001836 0.9831637 65 97 131
-1.401451 -0.6766313 0.4761747 74 105 139
-1.215842 -0.3012177 0.9561987 24 32 32
-1.217523 -0.5535546 0.929919 24 32 41
-1.288512 -0.3461463 0.7979769 123 161 222
-1.105406 -0.643716 1.139408 41 68 90
-1.304915 -0.6013944 0.7230803 41 44 74
-1.25667 -0.4221739 0.8446854 49 72 90
-1.275898 -0.6505032 0.7803857 41 56 74
-1.097546 -0.6467289 1.155991 24 48 74
-1.32705 -0.8194582 0.6372278 123 165 222
-1.232654 -0.4680606 0.9007505 65 97 131
-1.423415 -0.4612174 0.4334531 82 109 148
-1.329186 -0.6668913 0.653418 24 44 82
-1.271504 -0.4410581 0.8171106 65 93 123
-1.257453 -0.6008804 0.8364519 115 161 213
-1.349775 -0.6837776 0.6040983 57 85 115
-1.07906 -0.4056682 1.193365 74 101 131
-1.290714 -0.6528208 0.7489777 74 97 131
-1.179837 -0.05079052 1.016856 148 174 205
-1.31365 -0.679552 0.6979392 57 80 106
-1.228036 -0.4838759 0.9095743 8 16 24
-1.206547 -0.5590553 0.9703133 24 28 32
-1.274401 -0.3365627 0.8239082 16 20 24
-1.054814 -0.3818659 1.26598 32 48 65
-1.367161 -0.3857876 0.5840977 49 80 98
-1.179242 -0.7249689 0.9711764 123 161 222
-1.111981 -0.4596221 1.152696 65 93 123
-1.335969 -0.6386637 0.6405185 82 113 139
-1.405431 -0.1394139 0.4845572 131 157 197
-1.267842 -0.6774653 0.799607 24 48 74
-1.313063 -0.5923401 0.7051322 123 165 222
-1.066749 -0.1419085 1.242705 41 48 65
-1.264439 -0.6824205 0.7942495 49 72 98
-1.485412 -0.3838728 0.2565745 41 60 90
-1.087297 -0.1190141 1.207829 57 76 98
-1.207565 -0.4714805 0.9567752 65 89 123
-1.405043 0.185314 0.4451755 90 117 156
-1.308707 -0.6480958 0.7091575 74 101 131
-1.195251 -0.4801153 0.982696 16 16 16
-1.132304 -0.3835845 1.114992 49 68 98
-1.319979 -0.667454 0.6835794 24 36 65
-1.164907 -0.5100355 1.043105 65 93 123
-1.201244 -0.05969429 0.987998 123 145 180
-1.217596 -0.325545 0.9526371 24 36 41
-1.181567 -0.6750036 0.9836158 74 101 139
-1.420685 -0.1806049 0.441442 123 153 189
-1.09922 -0.3961391 1.18153 82 105 139
-1.164176 -0.3730823 1.053387 74 101 131
-1.323457 -0.1597753 0.7030832 32 52 90
-1.385091 -0.2129313 0.5356252 115 137 172
-1.263544 -0.5783674 0.8231199 123 165 222
-1.387586 -0.2716019 0.5332108 41 68 98
-1.284385 -0.3804092 0.7854733 49 68 90
-1.357064 -0.3095947 0.6097335 115 149 180
-1.305911 -0.4379817 0.7278536 106 133 164
-1.296012 -0.4231863 0.7633463 65 93 131
-1.297097 -0.6139781 0.7421907 32 56 74
-1.162143 -0.1100882 1.062555 65 93 123
-1.334735 -0.2469615 0.6643049 24 36 49
-1.14099 -0.2876041 1.105304 57 85 115
-1.288438 -0.3969971 0.7748425 131 157 189
-1.247694 -0.6530096 0.8260071 74 101 131
-1.210162 -0.2795667 0.9744425 16 20 24
-1.189335 -0.3867829 0.9962749 74 93 131
-1.332312 -0.5130022 0.6675519 32 40 49
-1.298195 -0.3038753 0.7661062 123 165 213
-1.224837 -0.3034729 0.9386685 16 20 24
-1.312936 -0.4665021 0.7086802 82 117 156
-1.274979 -0.6311718 0.7792811 41 60 82
-1.287772 -0.4471773 0.771749 24 24 32
-1.15309 -0.1875039 1.076893 57 80 115
-1.30225 -0.253296 0.7607233 16 24 32
-1.205725 -0.5844055 0.942981 16 20 24
-1.354737 0.4830987 0.5338308 49 68 98
-1.355247 -0.6861641 0.6482333 82 105 131
-1.390418 0.08303849 0.4957387 139 174 213
-1.071567 -0.3814444 1.230735 57 76 98
-1.373019 -0.3729723 0.5711759 49 68 98
-1.168609 -0.3854555 1.038102 74 101 131
-1.293419 -0.2577596 0.7707611 16 24 32
-1.41053 -0.340256 0.4737566 65 97 131
-1.261218 -0.3714961 0.8418608 49 64 90
-1.281871 -0.6773654 0.7629738 41 60 90
-1.239766 -0.5935846 0.8784178 16 28 32
-1.237454 -0.6664805 0.8705314 74 105 139
-1.213823 -0.2746524 0.9643825 8 8 16
-1.391149 0.340651 0.4576513 65 89 115
-1.295415 -0.500281 0.7734353 16 24 32
-1.264694 -0.6046572 0.8147273 41 76 131
-1.252874 -0.3100445 0.8751872 16 24 24
-1.31831 -0.2481325 0.7061679 24 36 49
-1.324249 -0.5026322 0.7331101 16 24 24
-1.135205 -0.5012898 1.106242 82 109 131
-1.380121 -0.1591085 0.5468295 123 153 189
-1.108956 -0.5171642 1.155054 49 72 106
-1.211132 -0.5719122 0.9394481 32 36 41
-1.292347 -0.4431915 0.7682548 16 24 41
-1.120344 -0.1990942 1.138162 82 113 148
-1.434421 0.3155313 0.33028 49 76 98
-1.179217 -0.3720702 1.018095 123 149 180
-1.251523 -0.2715516 0.8767417 24 32 41
-1.217123 -0.6168439 0.9212988 74 101 139
-1.409928 -0.3998052 0.4643933 115 149 180
-1.294687 -0.4056231 0.76118 74 97 131
-1.404167 -0.6645119 0.4609377 82 117 156
-1.175634 -0.415905 0.9671018 82 105 148
-1.198684 -0.311874 0.9939881 8 20 24
-1.247368 -0.3650982 0.8707928 57 89 123
-1.24072 -0.4156632 0.8865809 131 157 197
-1.415447 0.05839425 0.4392626 156 186 213
-1.148878 -0.4795302 1.064735 74 105 139
-1.192245 -0.4395722 0.9948841 65 89 123
-1.252643 -0.5962195 0.8501967 24 32 65
-1.168721 -0.08555731 1.040131 65 93 131
-1.384795 0.4583956 0.4392685 49 80 98
-1.122269 -0.6493655 1.106785 65 93 115
-1.304008 -0.4648249 0.7299198 41 56 82
-1.186276 -0.4843166 1.006561 65 85 115
-1.108175 -0.5007934 1.158371 65 89 123
-1.146764 -0.6321237 1.070722 65 97 123
-1.416805 -0.8115305 0.3752641 74 101 139
-1.289282 -0.4070935 0.766332 65 93 123
-1.373372 -0.2673615 0.56766 131 161 197
-1.028094 -0.2096527 1.317613 123 149 180
-1.267059 -0.6781023 0.7989544 24 52 74
-1.185742 -0.5511419 1.000561 24 32 41
-1.183838 -0.620649 0.9966322 74 105 139
-1.065087 -0.2038432 1.249228 32 48 65
-1.154741 -0.3544676 1.070292 82 105 139
-1.168296 -0.300851 1.044225 16 20 24
-1.195657 -0.5452401 0.9833615 8 12 16
-1.248631 -0.4608507 0.8619827 74 101 131
-1.283216 -0.5812863 0.7773781 65 76 106
-1.234488 -0.4097107 0.8927376 98 129 164
-1.179552 -0.381992 1.015073 74 97 131
-1.422358 -0.09488262 0.4367897 123 149 180
-1.128954 -0.2917634 1.122128 57 80 115
-1.461579 -0.04519433 0.325753 24 32 49
-1.274443 -0.1820929 0.8174575 74 105 131
-1.460967 0.2321856 0.2738444 180 206 238
-1.286805 -0.1183183 0.7929024 98 125 164
-1.03808 -0.1177874 1.284824 164 190 230
-1.13087 -0.122033 1.116539 131 153 189
-1.144746 -0.1666206 1.087204 82 113 148
-1.131576 -0.2239924 1.108469 82 101 139
-1.140553 -0.3139082 1.075907 74 97 139
-1.331569 -0.2136643 0.6853572 164 190 222
-1.418708 -0.008010695 0.4425649 164 198 230
-1.117887 -0.09385408 1.142933 90 121 156
-1.010345 -0.3365814 1.295856 131 161 189
-1.262437 -0.06753425 0.8446683 172 202 238
-1.243875 0.3435112 0.8572015 90 105 139
-1.098871 -0.2353587 1.168848 82 109 139
-1.021318 -0.2200274 1.30006 131 161 197
-1.300391 0.05465177 0.7485381 90 113 148
-1.242483 -0.2554167 0.8978319 16 24 32
-1.082512 -0.06034515 1.207056 41 52 74
-1.192559 0.05040569 0.9913694 156 182 222
-1.414822 0.1044579 0.4444188 90 117 148
-1.312282 -0.02294012 0.7337856 57 72 98
-1.236023 0.07347588 0.8940771 98 125 156
-1.25752 0.006380928 0.8582879 32 40 49
-1.18054 -0.1468707 1.019534 82 105 148
-1.318249 -0.1546952 0.7253408 139 194 230
-1.202685 0.06681287 0.9684269 106 129 164
-1.243917 0.4227178 0.8300177 98 113 148
-1.182486 0.05810058 1.008312 106 133 164
-1.317211 -0.1817083 0.7362503 41 60 74
-1.114427 -0.2300646 1.137566 98 121 164
-1.286844 0.05921451 0.780997 139 174 205
-1.289809 -0.268083 0.7884433 24 32 41
-1.252355 -0.06461643 0.8679433 148 178 213
-1.083564 -0.2532858 1.336136 139 161 197
-1.199602 -0.2002357 0.9969666 32 40 49
-1.30659 -0.1082803 0.7438932 98 121 164
-1.323041 -0.18383 0.7061006 49 60 90
-1.250057 -0.185799 0.878133 24 28 41
-1.291289 -0.02805886 0.7853227 32 44 65
-1.18864 -0.06230283 1.003569 115 141 172
-1.171823 -0.2037892 1.033101 24 28 41
-1.340976 -0.05065675 0.6818279 148 198 238
-1.235258 -0.1234825 0.9046338 123 153 189
-1.298346 -0.08703252 0.762029 74 89 139
-1.270506 0.1042705 0.8129919 106 129 172
-1.298189 0.09441751 0.7492832 57 76 115
-1.176905 -0.1522386 1.025169 115 149 189
-1.347664 0.1627005 0.6396138 41 60 74
-1.118129 -0.1861136 1.138318 74 97 131
-1.356204 -0.0420704 0.6196768 106 133 164
-1.23358 0.5695206 0.7928325 139 165 205
-1.109551 -0.3310539 1.1303 98 125 164
-1.286859 -0.05766413 0.7907354 148 190 230
-1.297621 -0.1418831 0.7666177 41 56 74
-1.139989 -0.2020478 1.094082 82 105 156
-1.146316 -0.1965208 1.085293 82 113 156
-1.130158 -0.1847774 1.116622 65 93 131
-1.195199 0.02895222 0.9866311 90 113 148
-1.276713 -0.1572762 0.8134193 49 64 90
-1.263275 -0.04782562 0.8426538 41 64 74
-1.083597 -0.2893099 1.18707 65 85 123
-1.239656 0.399987 0.8474722 164 206 230
-1.277738 0.2968991 0.79208 139 186 222
-1.43946 0.05945493 0.3766256 172 202 222
-1.184457 -0.06459036 1.013048 172 198 230
-1.241123 -0.2176709 0.8976597 41 52 65
-1.211028 -0.1604687 0.9542935 106 133 172
-1.281995 0.07209677 0.7900885 106 133 172
-1.152073 -0.2813815 1.062692 106 133 156
-1.101989 -0.3005089 1.151093 98 125 164
-1.258116 -0.03467678 0.8524955 41 48 65
-1.107592 -0.06063848 1.160283 57 76 106
-1.105849 -0.3052114 1.143073 65 97 131
-1.201944 -0.2371977 0.9858522 16 20 41
-1.202957 -0.04611231 0.9771047 148 178 205
-1.2517 -0.05236982 0.8686284 156 186 197
-1.144993 -0.1125853 1.091854 65 93 123
-1.351367 0.2237882 0.5913842 164 194 222
-1.26448 -0.1250931 0.8456885 148 178 213
-1.224218 -0.2369987 0.9376765 16 20 24
-1.142086 -0.1511095 1.095904 156 182 222
-1.116457 -0.1377794 1.146624 90 121 156
-1.126259 -0.2485264 1.129592 65 89 123
-1.139554 -0.319842 1.100709 49 68 98
-1.100752 -0.4429262 1.201066 32 56 90
-1.477262 -0.3252193 0.2373254 65 89 115
-1.104473 -0.1115968 1.179587 57 80 115
-1.225633 -0.3733992 0.9151053 98 129 172
-1.395823 0.6647051 0.2271847 148 182 213
-1.330734 0.4967301 0.5781696 82 109 139
-1.357065 0.7617965 0.3579552 65 97 123
-1.383333 0.3235052 0.4962192 74 93 123
-1.311304 0.3624153 0.6782104 164 198 222
-1.436697 0.3515685 0.3097853 65 93 123
-1.393511 0.6639184 0.3042704 82 105 139
-1.335979 0.3453991 0.6181327 106 137 172
-1.258283 0.502447 0.7659774 90 117 139
-1.323951 0.6663538 0.5026264 139 170 205
-1.376174 -0.7795057 0.6041774 49 80 115
-1.577503 0.04163962 -0.06333924 65 93 123
-2.785374 -0.831068 -1.166829 49 72 98
-1.544051 -0.5958064 -0.02229433 57 80 115
-1.57923 -0.7152491 -0.08968116 82 101 131
-1.589162 -0.6253725 -0.1383372 82 101 139
-1.476511 -0.5055557 0.2213244 98 117 148
-1.592512 -0.6844929 -0.1334828 82 105 139
-1.236278 -0.6671132 1.009804 74 101 139
-1.205561 -0.5808587 1.060876 90 113 148
-1.110016 -0.2568532 1.175358 82 101 131
-1.538387 -0.56001 0.03201184 24 44 74
-1.578388 -0.6958177 0.1252872 106 137 172
-1.549701 -0.6768422 -0.02197578 115 137 172
-1.527072 -0.6013191 0.03728914 106 129 164
-1.187349 -0.5574223 1.0887 57 76 115
-1.56534 -0.6073099 -0.05884111 41 64 98
-1.526402 -0.2183411 -0.1112139 41 60 98
-1.139656 -0.248456 1.101645 41 68 98
-1.519801 -0.5293453 0.03980228 41 56 90
-1.151776 -0.5685409 1.15307 57 76 115
-1.16092 0.1310489 1.146985 41 56 65
-1.396148 0.3263618 0.4836582 74 101 131
-1.328829 0.5267407 0.5725188 74 97 131
-1.367819 0.4529877 0.5115408 82 105 139
-1.338378 0.4500084 0.5851749 74 101 131
-1.436437 0.5142484 0.4224334 139 165 205
-1.269467 0.4769652 0.7452831 98 117 139
-1.259675 0.478562 0.7651755 115 149 180
-1.293467 -0.4683142 0.7936034 180 226 246
-1.132444 -0.155802 1.076266 90 121 164
-0.9753171 -0.1854799 1.392983 98 125 156
-1.299589 0.09110638 0.6322628 205 230 246
-0.9654958 -0.1136006 1.37834 115 145 180
-1.285612 -0.008233611 0.6923823 131 157 189
-1.155859 -0.4628831 1.076182 98 125 164
-1.025884 -0.5932655 1.340734 98 129 164
-1.25964 -0.846226 0.9023632 106 149 180
-1.153347 -0.05709907 1.00908 106 141 180
-1.102577 -0.06977309 1.123925 82 109 139
-1.14335 -0.4681216 1.098138 90 121 156
-1.270621 0.04667322 0.7162631 90 117 156
-1.393504 -0.8807614 0.5403221 115 145 172
-1.370041 -0.3596735 0.561838 49 80 106
-0.8989915 -0.2982146 1.497394 106 133 172
-1.318817 -0.3687527 0.7096848 57 68 90
-1.096236 -0.06483331 1.139213 90 113 148
-1.269364 0.03995768 0.7250745 115 145 180
-1.242867 -0.2621486 0.8702946 41 60 82
-1.263504 -0.9209353 0.8864592 115 153 189
-1.143589 -0.3863383 1.095291 90 117 156
-1.191811 -0.7671677 0.9996784 65 89 123
-1.372814 -0.3815279 0.5567627 98 133 172
-1.350608 -0.7092254 0.649932 65 97 123
-1.257079 -0.9920018 0.8983738 106 137 172
-1.007545 -0.3976749 1.35533 115 137 172
-1.16492 0.1102284 0.9539907 197 226 255
-1.258769 -0.8567719 0.9097957 189 226 255
-1.197843 -0.5703672 1.010209 41 52 65
-1.167142 -0.3065802 1.031321 16 28 41
-0.9969413 -0.5127324 1.386247 65 93 123
-1.21004 -0.7348449 0.9632534 57 76 115
-0.9786605 -0.2629963 1.385242 90 113 139
-1.106249 -0.3885536 1.157525 90 117 148
-1.015924 -0.6213763 1.355413 74 93 123
-1.262343 0.5328781 0.5649453 106 129 164
-1.15222 0.3677824 0.9702756 189 226 255
-1.37168 0.3272437 0.3869122 106 141 172
-1.208258 -0.1202727 0.9063026 106 129 172
-1.298959 -0.9345931 0.7832581 106 133 156
-1.193487 -0.02442972 0.9042723 49 72 98
-1.035565 -0.0509728 1.240069 189 230 246
-1.070344 -0.4045479 1.232093 49 72 98
-1.224739 -0.9720335 0.9638155 189 226 246
-1.248124 -0.3428127 0.8573897 106 129 164
-1.35461 -0.7490759 0.6426278 65 93 123
-1.101437 -0.01399609 1.10491 82 109 139
-1.337346 -0.6894884 0.689639 90 121 156
-0.9783481 -0.2930208 1.388596 82 105 139
-1.03093 -0.10503 1.268389 164 190 222
-1.161308 0.09248823 0.9663256 197 226 255
-1.482098 -0.3703322 0.2485694 57 89 106
-1.386474 -0.6694077 0.5494718 90 117 156
-1.000796 -0.6477079 1.368441 90 113 148
-1.085563 -0.06684896 1.160249 82 109 139
-1.196452 -0.6202824 1.037439 74 105 139
-1.33832 0.02166014 0.5595844 82 113 148
-1.217136 0.5531863 0.6448237 82 101 131
-1.416935 -0.7123568 0.4743601 49 76 106
-1.317248 -0.4477118 0.7235179 57 76 123
-1.427913 0.2396963 0.187376 74 109 131
-1.487314 -0.08672319 0.1388715 98 121 156
-1.399431 0.3591067 0.2604936 205 238 255
-1.335463 -0.4764839 0.670599 189 226 246
-1.461175 0.3498361 0.02126708 172 218 255
-1.361349 -0.319209 0.5759196 123 149 189
-1.255411 0.5284536 0.5635034 123 153 189
-1.219561 0.5391012 0.6501093 222 250 255
-1.264616 0.5055037 0.5568522 131 157 189
-1.224822 0.5519481 0.6286639 98 121 123
-1.46344 -0.0169141 0.1879582 74 97 131
-1.320569 -0.5081622 0.7617264 115 129 139
-1.345311 -0.6448861 0.6851818 148 178 205
-1.331391 -0.3741628 0.6637315 57 80 115
-1.346848 -0.4932706 0.644049 115 141 180
-1.50632 -0.1175733 0.07510574 98 125 156
-1.452222 0.2429678 0.1501458 90 121 148
-1.230491 0.53811 0.6200928 238 250 255
-1.428903 -1.128838 0.4082682 106 133 164
-1.457852 -0.07486405 0.2348822 57 80 106
-1.431762 -1.233644 0.3601607 115 137 172
-1.31699 -0.1313048 0.6458408 148 178 222
-1.307539 -0.6210502 0.7635027 32 44 57
-1.322031 -0.09203145 0.6289542 106 133 180
-1.419734 -0.7114971 0.4589251 32 56 82
-1.424921 -0.7731025 0.4434572 24 52 82
-1.490982 -0.07299663 0.1197343 49 80 106
-1.39648 -0.203933 0.4631372 41 72 98
-1.363655 -0.08074041 0.5129619 24 56 82
-1.325702 -0.4975915 0.7405602 180 210 246
-1.455423 -0.4268491 0.3326497 8 20 32
-1.386418 -0.8946066 0.5507827 106 137 172
-1.525213 -0.3911072 0.08872652 82 109 139
-1.322847 -0.88061 0.7410465 90 121 148
-1.489328 -0.2977441 0.194521 65 93 123
-1.387083 -0.5666424 0.5472703 24 52 82
-1.319395 -0.7613719 0.7312971 57 80 123
-1.318317 -0.2912983 0.6896733 24 52 82
-1.307251 -0.0858233 0.6627187 16 28 49
-1.484644 -0.3426275 0.2231072 41 56 90
-1.373336 -0.3230461 0.5528452 65 93 123
-1.271465 -0.08977314 0.7500997 90 105 131
-1.382462 -0.6269715 0.5614747 32 56 82
-1.449441 -0.07608101 0.2550281 24 32 49
-1.326812 -0.4513006 0.6917982 24 44 74
-1.42072 -0.4755752 0.4434245 8 24 49
-1.301052 -0.7225953 0.7737855 32 52 82
-1.272022 -0.1803571 0.7747803 156 202 246
-1.328725 -0.6621857 0.7066018 49 64 98
-1.356038 -0.2968636 0.5975826 65 101 131
-1.401447 -0.7160056 0.5116477 57 85 115
-1.401262 -0.53992 0.5064253 65 89 123
-1.394738 -0.5189363 0.5205339 8 28 57
-1.31806 -0.295819 0.6946926 32 44 65
-1.371747 -0.3418726 0.5601532 24 44 82
-1.314017 -0.5309376 0.7454011 24 44 65
-1.419425 -0.6605312 0.4594308 16 40 65
-1.38212 -0.2169334 0.5058661 16 40 74
-1.392746 -0.175048 0.4667125 24 48 74
-1.394442 -0.6791457 0.5297072 16 36 65
-1.326327 -0.4479792 0.6905348 32 56 82
-1.415227 -0.8794615 0.463641 41 64 98
-1.330585 -0.7480369 0.7050304 49 76 98
-1.413968 -0.7330105 0.478082 49 72 106
-1.31757 -0.0816708 0.6408113 8 24 49
-1.386348 -0.3577257 0.5225618 16 36 65
-1.302791 -0.2745098 0.7341368 32 44 57
-1.389261 -0.3621764 0.519141 41 64 98
-1.391723 -0.2846029 0.4964737 65 97 131
-1.395695 -0.1342179 0.4455232 16 32 65
-1.33207 -0.2777548 0.6584547 139 198 238
-1.397877 -0.2413762 0.468071 24 48 74
-1.35508 -0.1807171 0.5695842 164 194 246
-1.380598 -0.6831989 0.5686919 16 40 65
-1.501988 -0.4907927 0.1959987 41 60 90
-1.316558 -0.4864965 0.7566537 74 89 106
-1.388524 -0.9180089 0.5389622 24 44 74
-1.401811 -0.2574304 0.4615756 16 36 65
-1.353183 -0.3152833 0.6047533 16 40 74
-1.307966 -0.1615198 0.6736693 164 206 255
-1.314713 -0.2688882 0.7041295 156 202 238
-1.478704 -0.2412639 0.2131155 41 60 90
-1.357343 -0.1734627 0.5615953 24 52 82
-1.37017 -0.4428877 0.5768978 41 64 90
-1.300572 -0.6800292 0.7746983 49 76 106
-1.404791 -0.4516699 0.48487 57 93 131
-1.326366 -0.6326115 0.7169493 16 24 32
-1.346572 -0.7869732 0.6609461 106 133 164
-1.35192 -0.7356393 0.6430385 24 60 90
-1.411676 -0.7626504 0.4791467 32 48 74
-1.445345 -0.9473088 0.3777797 16 36 65
-1.313408 -0.1402716 0.6618576 74 113 139
-1.431921 -1.050545 0.3988436 82 109 131
-1.434854 -0.9622232 0.4183516 74 101 131
-1.462996 -1.006498 0.3141395 32 60 82
-1.382359 -0.1603629 0.4928773 57 89 115
-1.280452 -0.356397 0.7967911 24 28 41
-1.369624 -0.6050141 0.5947327 16 40 74
-1.52471 -0.4038752 0.0966273 49 68 98
-1.358866 -0.3009487 0.5889587 16 40 65
-1.384563 -0.2249027 0.502661 74 93 123
-1.39218 -0.4513175 0.5182067 41 64 98
-1.312799 -0.1573592 0.6717711 172 210 255
-1.404224 -0.6791219 0.502923 41 56 82
-1.489537 -0.7088837 0.2448692 16 32 49
-1.386414 -0.3415395 0.5199471 16 36 65
-1.423912 -0.4775331 0.4328127 16 40 65
-1.331549 -0.3638586 0.6707506 32 40 57
-1.410038 -0.7464898 0.4869088 8 28 49
-1.356775 -0.7615057 0.6355093 32 60 82
-1.365761 -0.5568021 0.6025891 16 32 65
-1.356837 -0.9619392 0.6423872 41 68 90
-1.403117 -0.6348719 0.5050087 16 40 74
-1.397062 -0.7141175 0.5230891 24 40 74
-1.365806 -0.1454597 0.530059 16 36 65
-1.352506 -0.1033212 0.5490419 65 89 123
-1.323422 -0.309557 0.6807809 65 101 131
-1.358903 -0.8382713 0.622161 41 64 98
-1.317297 -0.11004 0.6453945 74 105 131
-1.417782 -0.7263955 0.4661115 65 89 115
-1.423401 -0.7393881 0.4471436 16 36 65
-1.284843 -0.7185298 0.8125917 16 36 65
-1.374356 -0.5910621 0.5826667 16 36 65
-1.385586 -0.2090896 0.4944632 82 101 131
-1.402033 -0.9670054 0.521022 65 85 106
-1.337899 -0.7731182 0.6858535 41 60 82
-1.35238 -0.286998 0.6013521 65 97 131
-1.364268 -0.35006 0.5814883 65 93 131
-1.340055 -0.8193462 0.6718169 32 52 82
-1.356022 -0.1475794 0.5624848 65 89 115
-1.473889 -0.3826931 0.2662553 24 32 49
-1.389278 -0.6013281 0.5412023 24 40 74
-1.398544 -0.6961929 0.5179726 65 85 123
-1.288921 -0.07215165 0.7101913 24 36 49
-1.517055 -0.4184954 0.1245752 57 85 115
-1.382095 -0.7327246 0.5651379 16 36 65
-1.303129 -0.7633252 0.7722501 65 89 123
-1.277881 -0.245929 0.7845844 32 40 49
-1.453756 -0.9645512 0.3527219 57 80 115
-1.336634 -0.7193666 0.6875068 49 60 90
-1.336286 -0.08898322 0.5856687 57 85 123
-1.379066 -0.6279245 0.5726133 90 125 156
-1.353659 0.07583208 0.4869357 74 105 131
-1.360425 -0.7352997 0.6275283 57 80 115
-1.374165 -0.6195831 0.5828 49 68 98
-1.393387 0.02436848 0.3933427 139 161 205
-1.470312 -0.08308323 0.1881155 65 93 115
-1.311237 -0.0002959242 0.6267906 57 93 123
-1.299455 -0.738806 0.7766594 82 101 131
-1.321863 -0.4748725 0.7220189 115 153 197
-1.309219 0.034899 0.6322454 156 206 238
-1.357149 -0.2767647 0.5860029 16 44 74
-1.382748 0.04276266 0.4189994 57 80 115
-1.464321 0.01353069 0.1628172 41 60 90
-1.310159 0.02527292 0.6283517 156 210 246
-1.357904 0.06233019 0.4807781 115 145 189
-1.351827 0.04017277 0.5069702 41 68 98
-1.340181 0.1143907 0.5120325 164 210 246
-1.271488 -0.03885797 0.7502236 164 214 238
-1.346512 0.02752173 0.5275816 49 76 115
-1.382805 -0.232307 0.5078501 32 52 82
-1.296438 -0.009405631 0.6714723 82 101 131
-1.38284 -0.6390401 0.5603423 57 89 123
-1.467504 -0.1402092 0.2120349 41 64 90
-1.314112 -0.03770479 0.6371525 16 44 74
-1.359875 0.1201274 0.4467218 41 68 106
-1.323711 0.1394186 0.5449563 57 76 106
-1.339628 0.1317926 0.5037692 32 48 82
-1.303861 -0.01164661 0.6512843 74 109 156
-1.355228 -0.09202002 0.5463132 24 48 82
-1.325063 -0.05602926 0.6181338 65 97 123
-1.381608 0.06571029 0.4115306 65 89 123
-1.418079 -0.414444 0.4403189 8 16 41
-1.432507 0.01148533 0.2692162 8 16 16
-1.333761 -0.4439489 0.6709971 65 89 123
-1.28383 -0.5110405 0.8122888 32 44 57
-1.463327 -0.39594 0.2987814 24 32 49
-1.350223 -0.161969 0.5803672 65 93 131
-1.357045 -0.3826411 0.6067479 65 97 131
-1.303446 0.01475099 0.6482968 49 76 98
-1.369055 0.1206618 0.4246365 49 72 106
-1.398076 0.109619 0.3382725 65 85 123
-1.362416 -0.238172 0.5660495 32 52 90
-1.266404 0.003300778 0.7448635 74 113 148
-1.399105 -0.18657 0.4513775 8 40 65
-1.314971 0.01388883 0.6140818 82 117 148
-1.390249 -0.2711883 0.4944114 16 36 74
-1.272167 0.04702864 0.7195379 65 97 123
-1.344053 -0.4700222 0.6529133 16 36 65
-1.528067 -0.4150224 0.07917574 57 80 115
-1.47672 -0.9114693 0.2873918 32 40 57
-1.371094 0.09928282 0.4288608 123 153 189
-1.266847 -0.362628 0.8217722 24 40 74
-1.371604 -0.1603203 0.5206429 65 93 131
-1.29769 0.001633374 0.6710321 49 76 106
-1.325673 0.1393005 0.5430306 57 72 106
-1.412802 -0.5652362 0.4751971 57 68 98
-1.292827 -0.4143479 0.7658909 74 97 131
-1.370439 -0.3790141 0.5703607 74 101 139
-1.281455 -1.088979 0.8251498 131 161 197
-1.275573 -0.408857 0.806617 115 141 180
-1.411925 -1.149638 0.4424901 164 194 238
-1.303653 -0.2857265 0.7377504 74 89 106
-1.354716 -0.8063111 0.6411274 139 174 205
-1.414611 -1.376511 0.372801 123 145 180
-1.347664 -0.801524 0.6604522 172 202 230
-1.260951 -0.05131583 0.7586789 197 242 255
-1.44545 -0.4537085 0.3673612 24 36 57
-1.369518 -0.1154341 0.5130145 90 117 156
-1.338187 -0.5775807 0.6816029 115 145 172
-1.33472 -0.4558155 0.6701348 65 93 131
-1.468855 -0.2062984 0.2484535 57 72 106
-1.277617 -0.6437202 0.8295375 65 93 131
-1.385702 -0.2866747 0.5076478 65 93 123
-1.308295 -0.05912144 0.6513559 74 109 139
-1.277759 -0.6414434 0.8268924 65 93 123
-1.456144 -0.4160817 0.3266241 24 28 41
-1.356817 -0.3708227 0.605756 32 52 74
-1.279725 -0.759981 0.8270832 57 85 115
-1.371454 -0.5238445 0.5795233 49 76 115
-1.266626 -0.4432645 0.83493 32 48 74
-1.335855 -0.5820465 0.6792584 74 105 139
-1.401541 -0.6100361 0.5043781 24 48 74
-1.291774 -0.6118197 0.7939956 49 80 106
-1.347434 -0.2591326 0.6095872 57 89 131
-1.418883 -0.3982991 0.4376133 57 80 115
-1.308753 -0.09956612 0.6492131 49 80 115
-1.401132 -0.7080117 0.5063837 32 56 90
-1.310219 -0.5575742 0.7578117 32 44 57
-1.265474 -0.3538938 0.8247719 74 89 123
-1.341148 -0.4414929 0.6544386 57 89 115
-1.072186 -0.4032266 1.242805 24 44 74
-1.254509 -0.5303916 0.8701797 41 52 65
-1.09759 -0.1087699 1.133458 82 109 148
-1.156552 -0.2247809 1.047043 90 109 139
-1.109533 -0.2416567 1.147422 90 105 148
-1.203592 -0.4963635 0.9801841 16 28 32
-1.145129 -0.1351414 1.046091 90 117 156
-1.186273 -0.5170122 1.026178 32 36 41
-1.295168 -0.5413138 0.7808358 49 60 82
-1.148306 0.05311636 0.9850714 180 226 255
-1.264417 -0.1233619 0.7802172 82 117 148
-1.1809 -0.3295152 1.013144 82 109 139
-1.148481 -0.1204774 1.029839 74 97 131
-1.262964 -0.3903063 0.8369151 49 68 90
-1.397317 -0.6043941 0.5178666 41 64 90
-1.196049 -0.386705 0.9901686 74 97 131
-1.275668 -0.09779079 0.7458231 57 76 98
-1.278609 -0.4430981 0.8026739 82 109 148
-1.035713 -0.1158511 1.259914 98 129 164
-1.233523 -0.5565099 0.9284043 24 32 41
-1.250086 -0.8643402 0.9080831 90 121 164
-1.285984 -0.02274601 0.7001927 65 93 123
-1.258076 -0.3347086 0.8376565 32 40 57
-1.199735 -0.008455765 0.8995999 65 101 131
-1.190666 -0.06697074 0.9364117 8 24 41
-1.245683 -0.8893389 0.9163289 90 121 156
-1.193223 -0.3377194 0.9885634 16 16 24
-1.07909 -0.4542205 1.239795 32 48 74
-1.2693 -0.215155 0.7986191 139 194 230
-1.246574 -0.1122176 0.8225594 65 89 123
-1.227227 -0.5605828 0.9413584 8 16 24
-1.218473 -0.5671477 0.932151 8 16 24
-1.039229 -0.08623107 1.245826 123 153 189
-1.261188 -0.8943876 0.8655536 82 109 139
-1.258582 -0.2325984 0.8345395 32 44 65
-1.129388 -0.05464516 1.06434 49 76 115
-1.172631 -0.7816776 1.057407 24 36 65
-1.252338 -0.2456559 0.8474111 24 32 41
-1.120805 -0.4738971 1.153776 57 85 123
-1.198004 -0.1508499 0.9408296 65 93 131
-1.169394 -0.2100416 1.01824 16 20 24
-1.250072 -0.4195727 0.8695614 16 28 49
-1.220658 -0.3353926 0.927562 24 32 41
-1.216193 -0.521974 0.9671911 8 12 16
-1.093316 -0.09080931 1.141496 57 80 123
-1.246612 -0.6170276 0.8938888 8 16 24
-1.232313 -0.2083416 0.8800201 24 36 49
-1.226258 -0.4829136 0.9301754 16 24 32
-1.353633 -0.2455177 0.5907786 41 68 98
-1.289299 -0.2483221 0.7513908 156 206 238
-1.290707 -0.6870146 0.7920652 41 48 74
-1.183612 -0.5133198 1.02738 16 24 32
-1.176215 -0.5332202 1.046966 65 85 115
-1.196059 -0.2965617 0.9801974 24 32 41
-1.240223 -0.4724765 0.8992912 57 85 123
-1.320906 -0.6047432 0.7248775 16 24 32
-1.174748 -0.06537465 0.9715616 98 125 164
-1.373922 -0.6937955 0.5829245 57 85 123
-1.135881 -0.5729015 1.132281 32 56 90
-1.178648 -0.1870761 0.9949781 57 89 115
-1.150674 -0.08180912 1.022568 74 101 139
-1.404788 -0.5867829 0.492113 65 89 123
-1.329303 -0.8443284 0.7062541 106 137 164
-1.324174 0.1558826 0.5300528 164 214 246
-1.105295 -0.7083209 1.19726 32 52 82
-1.106494 -0.07911202 1.112294 49 72 106
-1.228193 -0.1654044 0.8804852 57 89 123
-1.277066 -0.6142552 0.8361911 16 20 24
-1.121848 -0.7252287 1.162034 24 40 65
-1.14426 -0.03718529 1.033429 74 105 139
-1.121693 -0.5230646 1.163593 57 85 115
-1.218745 -0.3261572 0.9316457 8 16 24
-1.145783 -0.4022636 1.098111 74 101 131
-1.286955 -0.523058 0.8003284 32 40 57
-1.236071 -0.6541959 0.9289531 65 93 131
-1.207088 -0.0746296 0.9013591 90 117 156
-1.19998 -0.005886076 0.9015881 65 97 131
-1.272151 -0.4179916 0.8180022 57 93 123
-1.155971 -0.258357 1.056994 8 16 24
-1.169153 -0.3105091 1.035337 16 16 16
-1.302794 -0.2112215 0.7160101 164 210 238
-1.207376 -0.3482653 0.9600489 57 80 123
-1.248676 -0.4189392 0.8692442 16 28 49
-1.228801 -0.4086632 0.9195156 65 93 131
-1.096519 -0.01372509 1.12108 32 44 65
-1.381147 -0.8366509 0.5602861 41 64 98
-1.211761 -0.4744144 0.9577954 49 80 115
-1.171338 -0.728469 1.061585 41 64 98
-1.13088 -0.700005 1.121187 57 85 123
-1.321773 -0.7147157 0.7263991 148 190 230
-1.370425 -0.981016 0.6082651 49 76 106
-1.346116 -0.2974468 0.6148449 57 93 123
-1.356526 -0.6524747 0.6244219 32 56 90
-1.501482 -0.4256734 0.2406688 32 44 74
-1.191395 -0.4948716 1.008684 49 80 106
-1.172306 -0.403035 1.04017 74 101 131
-1.192042 -0.6755095 1.010434 49 85 115
-1.180575 -0.5873776 1.032983 65 89 123
-1.389144 -0.9195854 0.5419141 24 48 74
-1.150152 -0.120779 1.027981 57 80 106
-1.144274 -0.5689073 1.110065 65 93 123
-1.295021 -0.0346584 0.678166 41 56 82
-1.347195 -0.243536 0.6070854 57 93 123
-1.103217 -0.08755627 1.131239 65 97 123
-1.176991 -0.2241773 0.9963976 24 32 41
-1.088122 -0.5510226 1.214493 32 48 74
-1.223299 -0.2330063 0.915721 24 32 41
-1.283145 -0.8419631 0.8254082 82 117 148
-1.146991 -0.6346005 1.104354 65 93 123
-1.204721 -0.1925654 0.9408764 16 20 24
-1.2804 -0.1475222 0.7506262 41 56 82
-1.225983 -0.1471397 0.8767408 65 89 123
-1.258934 -0.6086333 0.8796439 16 24 24
-1.223836 -0.1808494 0.8971317 24 36 41
-1.276587 -0.0183984 0.7259597 98 117 148
-1.335768 -0.001808919 0.5696385 115 141 180
-1.43461 -0.8258817 0.4607845 106 133 164
-1.276647 0.0448117 0.703637 222 255 255
-1.399498 -0.3285595 0.4764784 65 89 123
-1.377332 -0.3472899 0.5435757 115 149 189
-1.426675 -0.6377661 0.4538991 98 129 172
-1.326786 0.01746639 0.5806797 123 161 189
-1.389907 -0.7875493 0.5442938 115 137 180
-1.346643 -0.3848589 0.6319865 123 153 197
-1.413678 -0.5995433 0.476593 82 105 139
-1.465843 -1.221368 0.2457914 98 121 164
-1.451429 -1.277389 0.2681189 123 153 189
-1.360522 -0.7992581 0.6292505 74 97 123
-1.45548 -1.404508 0.1792582 123 149 189
-1.326335 -0.4070995 0.6880624 82 109 148
-1.501332 -0.3672949 0.1765057 57 72 98
-1.258129 -0.04737749 0.7712958 197 238 255
-1.469044 -0.3617169 0.2683797 57 72 98
-1.339985 -0.5591913 0.6750895 57 93 115
-1.32961 -0.8656678 0.7219952 131 161 197
-1.389043 -0.371289 0.519599 32 56 90
-1.418344 -0.8635953 0.4617023 98 125 164
-1.322399 -0.09820522 0.6303461 90 125 164
-1.38198 -0.2645749 0.5203465 41 64 98
-1.430948 -0.9914363 0.4163081 90 117 148
-1.350661 -0.3666072 0.62196 57 93 123
-1.493047 -0.08273825 0.1121611 57 76 115
-1.282783 -0.09949937 0.7279869 90 109 139
-1.521837 -0.4175933 0.1056144 49 76 98
-1.448765 -0.5455346 0.3633893 8 16 32
-1.39259 -0.3281888 0.5094208 57 80 115
-1.336508 -0.7096859 0.6894098 41 52 82
-1.407781 -0.5995808 0.4899696 16 36 65
-1.404783 -0.647821 0.5019851 16 36 65
-1.376902 -0.748584 0.5785261 57 85 115
-1.377968 -0.8419091 0.5787733 41 64 98
-1.346024 -0.841474 0.6620246 106 133 164
-1.367809 -0.2240439 0.5488067 57 89 115
-1.345898 -0.7102013 0.6634055 41 64 90
-1.349861 -0.3897197 0.6225334 57 93 123
-1.3803 0.1178601 0.3934803 115 145 180
-1.383242 -0.320785 0.5215721 82 113 148
-1.282578 0.01922028 0.701212 74 93 115
-1.350551 -0.6892945 0.6456859 90 125 156
-1.495997 -1.010741 0.1982241 24 44 74
-1.351082 0.000664632 0.5216374 74 105 139
-1.247223 0.00273675 0.7857468 131 161 189
-1.384627 0.03094804 0.4158162 139 174 205
-1.365327 0.03946069 0.4692338 74 97 131
-1.466217 0.020526 0.1514436 41 64 98
-1.412809 -0.8918102 0.4761558 57 85 115
-1.3389 0.1573737 0.4897301 57 93 123
-1.346918 -0.5698299 0.6531147 41 60 82
-1.365661 0.108831 0.4411076 106 137 172
-1.358993 0.08731318 0.4667746 32 60 90
-1.322944 -0.1586765 0.6502887 164 206 246
-1.390459 0.07910474 0.3785177 115 145 189
-1.357843 -0.1637313 0.5570967 65 97 131
-1.317073 -0.210125 0.6768295 180 218 255
-1.29329 0.02210643 0.6830755 74 101 131
-1.362899 -0.5056276 0.6051204 24 48 82
-1.454812 -0.9298806 0.3511499 49 68 98
-1.282267 0.02359998 0.6944629 41 60 82
-1.309901 -0.3727202 0.7187576 32 40 57
-1.335708 -0.5825988 0.6839511 32 56 82
-1.415875 -0.4235589 0.4502894 65 89 131
-1.293651 -0.5478112 0.789968 24 28 41
-1.352915 -0.4442023 0.6261837 49 68 98
-1.365486 -0.3627241 0.5793034 24 48 82
-1.363223 0.01709606 0.4867845 106 137 180
-1.360741 -0.270321 0.5771721 65 89 123
-1.458923 -0.9452188 0.3345447 57 85 115
-1.358745 -0.3705553 0.6043985 57 76 106
-1.447721 -0.9398069 0.3704471 82 109 139
-1.380927 -0.3469675 0.5379533 57 89 123
-1.346179 -0.3731983 0.6341725 41 64 90
-1.414245 -1.109209 0.4528835 57 80 106
-1.330226 -0.3854511 0.6779955 65 97 131
-1.367644 -0.3827409 0.5810509 65 93 131
-1.229608 -0.6880479 0.9389408 65 97 139
-1.385425 -0.6941476 0.5536177 98 117 156
-1.396197 -0.6408954 0.5277981 82 117 156
-1.238066 -0.7475999 0.9227915 65 89 115
-1.232754 -0.6443347 0.9241288 65 93 123
-1.241376 -0.8902249 0.9272128 148 186 238
-1.237937 -0.9440383 0.9276216 106 137 172
-1.251388 -0.7525685 0.8836018 57 85 115
-1.197351 -0.9246591 1.017856 148 190 238
-1.361805 -0.9735903 0.6182103 65 93 123
-1.252172 -0.9899022 0.8905026 74 109 139
-1.318321 -0.6592976 0.7376025 41 56 82
-1.162558 -0.7739046 1.101333 8 20 32
-1.192193 -0.4476401 0.9885943 49 72 106
-1.210382 -0.5635528 0.9723011 8 12 16
-1.245537 -0.8749945 0.9155667 148 190 238
-1.049711 -0.7610552 1.279166 148 198 238
-1.182855 -0.7645934 1.029319 32 48 82
-1.053406 -0.6668367 1.285543 74 105 139
-1.198644 -0.7477604 0.9999993 41 72 98
-1.19936 -0.5623984 0.9920555 8 12 24
-1.23785 -0.4851225 0.8975471 65 85 106
-1.188244 -0.9403461 1.036381 57 76 98
-1.237976 -0.9258187 0.9289642 123 153 197
-1.32603 -1.048475 0.6972171 74 105 131
-1.323147 -0.8190416 0.7089841 65 97 131
-1.080694 -0.5141335 1.222747 32 48 74
-1.341898 -0.7427327 0.6736115 57 89 115
-1.332746 -0.7949643 0.7002688 41 64 98
-1.333487 -1.082968 0.7365995 49 72 98
-1.123251 -0.7075669 1.162271 49 72 106
-1.233893 -0.6722112 0.9214953 49 80 115
-1.194966 -0.9561813 1.019486 148 186 230
-1.368103 -0.9629694 0.6186316 57 85 115
-1.346281 -0.987078 0.6509947 74 101 131
-1.353229 -0.8293326 0.6372038 65 85 123
-1.492617 0.2134796 -0.04480102 172 198 238
-1.587475 -0.1240481 -0.2775456 115 141 172
-1.517681 0.1563607 -0.111838 57 85 115
-1.543143 0.2690501 -0.2857579 8 20 41
-1.626735 -0.05518851 -0.5124457 106 133 164
-1.397207 0.9201407 -0.3360489 49 76 90
-1.397023 0.9017062 -0.3134834 65 80 98
-1.462363 0.3273968 0.004729618 139 178 213
-1.518875 0.1204741 -0.09938038 57 80 115
-1.35437 1.018147 -0.2927433 115 137 164
-1.591133 -0.3748635 -0.203004 115 141 180
-1.574644 0.3081359 -0.4967667 65 76 90
-1.468141 -0.1522322 0.1949784 106 129 164
-1.494935 -0.5574186 0.2037725 98 117 148
-1.487563 -0.5180694 0.248588 82 109 139
-1.319641 1.050516 -0.1867316 139 174 197
-1.596755 -0.9834848 -0.1556501 90 113 148
-1.542692 -0.1479829 -0.08528993 90 109 148
-1.482835 0.3856763 -0.1111213 123 153 197
-1.6554 -0.5759301 -0.3898831 74 89 98
-1.578878 0.3705665 -0.5731113 41 52 57
-1.438162 0.369842 0.07473218 115 145 180
-1.608619 -0.7365109 -0.2235465 90 117 148
-1.567928 0.04810407 -0.3225795 123 157 197
-1.471788 -0.6301534 -0.3139648 41 52 65
-1.514549 -0.335495 0.08999207 98 125 156
-1.319429 1.076502 -0.2272951 65 76 98
-1.365402 0.9987866 -0.3013701 41 48 65
-1.54186 -0.8191801 0.08891507 82 109 139
-1.469868 0.3689048 -0.05771628 98 125 156
-1.361468 0.8791145 -0.0951122 115 137 164
-1.601169 -0.6822604 -0.198348 74 101 139
-1.603763 -0.09100687 -0.3649079 98 121 156
-1.667787 -0.07184406 -0.6862538 106 133 172
-1.597741 -0.9524157 -0.1543255 82 109 139
-1.412748 0.9064544 -0.3971868 189 234 255
-1.381208 -0.3471228 0.5383018 115 145 189
-1.536371 -0.7782224 0.09561574 106 137 164
-1.518601 0.04214394 -0.08163015 106 129 164
-1.374485 0.9466816 -0.242908 106 129 156
-1.4654 0.3219282 -0.002197549 90 121 148
-1.442679 0.3039364 0.1263801 197 234 255
-1.571158 -0.1147698 -0.2303171 90 113 148
-1.492057 0.4047834 -0.189578 123 149 189
-1.553721 0.003828974 -0.2073174 32 48 57
-1.523213 -0.6685911 0.1422321 98 129 156
-1.547257 -0.7353728 0.03837483 74 97 131
-1.604287 -0.9763817 -0.190841 65 89 123
-1.569914 -1.083126 -0.2042558 74 101 131
-1.538366 -0.666403 0.07030142 90 109 139
-1.540073 0.3524592 -0.3120393 32 64 90
-1.616771 -0.29996 -0.3382517 41 48 65
-1.544705 0.373928 -0.3721688 32 48 57
-1.503203 0.3401149 -0.157562 82 109 139
-1.527492 0.4003592 -0.3594878 16 24 41
-1.55812 0.02094124 -0.2366538 49 56 74
-1.425698 0.1843649 0.1929333 32 52 74
-1.487046 0.3478824 -0.1127435 123 145 180
-1.557164 0.3431302 -0.4385842 24 32 41
-1.558515 0.07309011 -0.2718411 131 153 189
-1.398975 0.9253334 -0.3506961 172 222 255
-1.476644 -0.5375844 0.2588426 74 93 123
-1.511077 -0.1007809 0.01829445 82 109 139
-1.798711 0.1165379 -0.3509237 115 145 180
-1.603679 0.3572852 -0.6770205 41 52 57
-1.541732 0.2680168 -0.2839471 16 24 41
-1.364547 0.8803393 -0.111738 115 141 172
-1.45009 -0.8310572 0.3838088 90 117 156
-1.537617 0.3991037 -0.336695 16 28 49
-1.545092 -0.3334288 -0.03106673 90 117 148
-1.325378 1.03697 -0.1647197 139 165 197
-1.317367 1.02813 -0.1276318 205 242 255
-1.474036 -0.1400057 0.1771076 106 129 164
-1.37382 0.8895145 -0.1511671 139 161 189
-1.604542 0.3958199 -0.6177305 65 85 98
-1.527986 -0.452409 0.06670018 65 93 123
-1.607584 -0.3303334 -0.2853292 32 40 57
-1.643564 -0.4324977 -0.3613874 98 125 148
-1.381777 0.8907389 -0.1984267 82 97 115
-1.669823 -0.6839964 -0.4717009 90 113 131
-1.509926 0.1686552 -0.1743951 16 32 57
-1.485582 0.4700338 -0.1482098 106 137 172
-1.601455 -0.382652 -0.2461601 82 109 148
-1.589104 0.04595758 -0.3924914 139 170 205
-1.564692 -0.6751608 -0.0434346 115 137 172
-1.413447 0.9022936 -0.3843104 65 97 106
-1.590196 -0.636757 -0.1406148 98 125 148
-1.673588 -0.3457265 -0.6183926 74 93 115
-1.586025 -0.4845876 -0.1533552 115 141 172
-1.436151 0.3617005 0.0831468 189 230 255
-1.462663 0.3300726 -0.003346771 98 125 156
-1.384998 0.1119234 0.3745584 98 125 156
-1.322673 0.02217186 0.5901532 213 246 255
-1.508232 0.4603005 -0.3412484 41 64 82
-1.677557 -0.2060822 -0.675371 8 12 24
-1.556261 -0.6562447 -0.0009815114 115 141 172
-1.461571 0.3531802 -0.007827128 172 214 255
-1.466638 0.3116152 -0.001512258 172 206 246
-1.55571 -0.7517325 0.02388483 106 133 164
-1.350402 -0.2034586 0.5937294 74 105 148
-1.461464 -0.1462692 0.2268108 90 117 148
-1.595352 -0.8399436 -0.1281704 74 97 123
-1.457762 0.3607096 -0.001447948 82 117 148
-1.368917 -0.3202959 0.5686357 123 153 197
-1.390966 0.9175717 -0.2958303 49 72 82
-1.477121 0.3143829 -0.04203346 106 133 164
-1.639438 -0.4891909 -0.4040393 115 137 172
-1.610775 -0.9679991 -0.2220963 90 117 148
-1.372848 0.8912339 -0.2041777 90 101 115
-1.510433 0.08557003 -0.06696372 123 149 189
-1.553806 -0.8849094 0.03425124 65 85 115
-1.428277 0.8382539 -0.3801374 106 145 180
-1.621687 -0.4523095 -0.6926188 115 141 180
-1.509117 -0.08305553 0.01475858 115 141 180
-1.465061 0.5021173 -0.1347336 106 145 180
-1.351534 0.09379671 0.4790536 172 202 246
-1.656473 -0.7947257 -0.4613523 90 109 139
-1.64122 -0.4874412 -0.4074297 106 137 164
-1.546494 0.2866027 -0.3258658 24 36 49
-1.578354 0.3823673 -0.6248451 57 76 98
-1.584104 -0.5147806 -0.1355216 90 113 148
-1.561157 -0.02377164 -0.2114137 148 174 205
-1.589933 -0.8946075 -0.1103645 90 109 139
